221.206980619 33.8876629824 522
220.365889438 33.7588125528 518
220.365889438 33.7588125528 508
218.683707076 33.5011116937 506
218.683707076 33.5011116937 504
218.683707076 33.5011116937 500
217.842615895 33.3722612641 496
217.842615895 33.3722612641 494
217.001524714 33.2434108345 492
217.001524714 33.2434108345 490
217.001524714 33.2434108345 488
216.160433533 33.1145604049 486
216.160433533 33.1145604049 484
216.160433533 33.1145604049 482
215.319342352 32.9857099753 480
215.319342352 32.9857099753 478
215.319342352 32.9857099753 476
215.319342352 32.9857099753 474
214.478251171 32.8568595457 472
215.319342352 32.9857099753 470
214.478251171 32.8568595457 468
214.478251171 32.8568595457 464
213.63715999 32.7280091161 456
211.954977627 32.4703082569 452
211.113886446 32.3414578273 450
211.113886446 32.3414578273 448
211.113886446 32.3414578273 446
211.113886446 32.3414578273 444
211.113886446 32.3414578273 442
210.272795265 32.2126073978 440
210.272795265 32.2126073978 438
209.431704084 32.0837569682 436
208.590612903 31.9549065386 434
209.431704084 32.0837569682 432
208.590612903 31.9549065386 430
208.590612903 31.9549065386 428
206.908430541 31.6972056794 426
207.749521722 31.826056109 422
207.749521722 31.826056109 420
207.749521722 31.826056109 418
206.908430541 31.6972056794 414
205.226248179 31.4395048202 410
205.226248179 31.4395048202 406
204.385156998 31.3106543906 404
204.385156998 31.3106543906 402
204.385156998 31.3106543906 400
204.385156998 31.3106543906 398
204.385156998 31.3106543906 396
203.544065817 31.181803961 394
203.544065817 31.181803961 392
203.544065817 31.181803961 390
203.544065817 31.181803961 388
202.702974636 31.0529535314 386
201.861883455 30.9241031018 384
201.861883455 30.9241031018 382
201.861883455 30.9241031018 380
201.861883455 30.9241031018 378
201.861883455 30.9241031018 376
201.020792274 30.7952526723 374
201.020792274 30.7952526723 372
201.020792274 30.7952526723 370
199.338609911 30.5375518131 368
200.179701093 30.6664022427 366
200.179701093 30.6664022427 364
200.179701093 30.6664022427 362
198.49751873 30.4087013835 360
198.49751873 30.4087013835 358
197.656427549 30.2798509539 356
197.656427549 30.2798509539 354
196.815336368 30.1510005243 352
196.815336368 30.1510005243 350
195.974245187 30.0221500947 348
195.974245187 30.0221500947 346
195.974245187 30.0221500947 344
195.974245187 30.0221500947 342
195.974245187 30.0221500947 340
195.974245187 30.0221500947 338
195.974245187 30.0221500947 336
195.133154006 29.8932996651 334
195.133154006 29.8932996651 332
194.292062825 29.7644492355 330
194.292062825 29.7644492355 328
193.450971644 29.6355988059 326
192.609880463 29.5067483763 324
191.768789282 29.3778979468 322
192.609880463 29.5067483763 320
191.768789282 29.3778979468 318
191.768789282 29.3778979468 316
191.768789282 29.3778979468 314
190.927698101 29.2490475172 312
190.08660692 29.1201970876 310
190.08660692 29.1201970876 308
190.08660692 29.1201970876 306
190.08660692 29.1201970876 304
189.245515739 28.991346658 302
189.245515739 28.991346658 300
189.245515739 28.991346658 298
188.404424558 28.8624962284 296
188.404424558 28.8624962284 294
188.404424558 28.8624962284 292
188.404424558 28.8624962284 290
188.404424558 28.8624962284 288
186.722242196 28.6047953692 286
186.722242196 28.6047953692 284
-45.4189237773 -6.95792319791 282
-46.2600149584 -7.08677362751 280
-48.7832885015 -7.47332491628 278
-51.3065620447 -7.85987620505 276
-52.9887444069 -8.11757706423 274
-54.670926769 -8.37527792342 272
-57.1942003122 -8.76182921219 270
-59.7174738553 -9.14838050096 268
-62.2407473985 -9.53493178973 266
-65.6051121228 -10.0503335081 264
-68.969476847 -10.5657352265 262
-73.1749327523 -11.2099873744 260
-80.7447533819 -12.3696412407 258
-82.426935744 -12.6273420999 256
-116.911674167 -17.9102097132 254
-116.911674167 -17.9102097132 252
-116.911674167 -17.9102097132 250
-116.070582986 -17.7813592836 248
-116.911674167 -17.9102097132 246
-115.229491805 -17.652508854 244
-116.070582986 -17.7813592836 242
-117.752765349 -18.0390601427 240
-117.752765349 -18.0390601427 238
-118.59385653 -18.1679105723 236
-118.59385653 -18.1679105723 234
-119.434947711 -18.2967610019 232
-119.434947711 -18.2967610019 230
-119.434947711 -18.2967610019 228
-119.434947711 -18.2967610019 226
-118.59385653 -18.1679105723 224
-117.752765349 -18.0390601427 222
-117.752765349 -18.0390601427 220
-116.911674167 -17.9102097132 218
-116.911674167 -17.9102097132 216
-121.958221254 -18.6833122907 214
-122.799312435 -18.8121627203 212
-121.958221254 -18.6833122907 210
-122.799312435 -18.8121627203 208
-121.958221254 -18.6833122907 206
-121.958221254 -18.6833122907 204
-122.799312435 -18.8121627203 202
-122.799312435 -18.8121627203 200
-121.958221254 -18.6833122907 198
-121.958221254 -18.6833122907 196
-121.958221254 -18.6833122907 194
-121.958221254 -18.6833122907 192
-121.958221254 -18.6833122907 190
-121.958221254 -18.6833122907 188
-46.2600149584 -7.08677362751 186
-46.2600149584 -7.08677362751 184
-121.958221254 -18.6833122907 182
-121.958221254 -18.6833122907 180
-122.799312435 -18.8121627203 178
-121.958221254 -18.6833122907 176
-121.958221254 -18.6833122907 174
-122.799312435 -18.8121627203 172
-122.799312435 -18.8121627203 170
-122.799312435 -18.8121627203 168
-123.640403616 -18.9410131499 166
-123.640403616 -18.9410131499 164
-123.640403616 -18.9410131499 162
-124.481494797 -19.0698635795 160
-125.322585978 -19.1987140091 158
-125.322585978 -19.1987140091 156
-125.322585978 -19.1987140091 154
223.958263188 38.1910507846 554
224.797058181 38.334088428 552
223.958263188 38.1910507846 550
223.958263188 38.1910507846 548
223.958263188 38.1910507846 544
222.280673201 37.9049754978 534
219.764288222 37.4758625677 528
220.603083215 37.618900211 522
220.603083215 37.618900211 518
218.925493228 37.3328249243 506
218.086698235 37.1897872809 504
218.086698235 37.1897872809 500
217.247903242 37.0467496375 498
217.247903242 37.0467496375 496
217.247903242 37.0467496375 494
216.409108249 36.9037119941 492
216.409108249 36.9037119941 490
215.570313256 36.7606743507 488
216.409108249 36.9037119941 486
215.570313256 36.7606743507 484
214.731518262 36.6176367073 482
214.731518262 36.6176367073 480
214.731518262 36.6176367073 478
214.731518262 36.6176367073 476
214.731518262 36.6176367073 474
213.892723269 36.4745990639 472
214.731518262 36.6176367073 470
213.892723269 36.4745990639 468
213.053928276 36.3315614205 466
213.892723269 36.4745990639 464
213.053928276 36.3315614205 462
211.37633829 36.0454861338 458
212.215133283 36.1885237772 452
210.537543296 35.9024484904 450
210.537543296 35.9024484904 448
210.537543296 35.9024484904 446
210.537543296 35.9024484904 444
209.698748303 35.759410847 442
209.698748303 35.759410847 440
208.85995331 35.6163732036 436
208.021158317 35.4733355602 434
208.85995331 35.6163732036 432
208.021158317 35.4733355602 430
208.021158317 35.4733355602 428
208.021158317 35.4733355602 426
206.34356833 35.1872602734 424
207.182363324 35.3302979168 422
206.34356833 35.1872602734 418
206.34356833 35.1872602734 414
204.665978344 34.9011849867 412
203.827183351 34.7581473433 410
204.665978344 34.9011849867 406
203.827183351 34.7581473433 404
203.827183351 34.7581473433 402
203.827183351 34.7581473433 400
203.827183351 34.7581473433 398
203.827183351 34.7581473433 396
202.988388357 34.6151096999 394
202.988388357 34.6151096999 392
202.988388357 34.6151096999 390
202.149593364 34.4720720565 388
202.149593364 34.4720720565 386
201.310798371 34.3290344131 384
201.310798371 34.3290344131 382
201.310798371 34.3290344131 380
201.310798371 34.3290344131 378
201.310798371 34.3290344131 376
200.472003378 34.1859967697 374
200.472003378 34.1859967697 372
200.472003378 34.1859967697 370
198.794413391 33.899921483 368
198.794413391 33.899921483 366
199.633208385 34.0429591263 364
199.633208385 34.0429591263 362
197.955618398 33.7568838396 360
197.955618398 33.7568838396 358
197.955618398 33.7568838396 356
197.955618398 33.7568838396 354
197.116823405 33.6138461962 352
196.278028412 33.4708085528 350
195.439233419 33.3277709094 348
195.439233419 33.3277709094 346
195.439233419 33.3277709094 344
195.439233419 33.3277709094 342
195.439233419 33.3277709094 340
195.439233419 33.3277709094 338
195.439233419 33.3277709094 336
194.600438425 33.184733266 334
194.600438425 33.184733266 332
193.761643432 33.0416956226 330
192.922848439 32.8986579792 328
192.922848439 32.8986579792 326
192.922848439 32.8986579792 324
191.245258452 32.6125826925 322
192.922848439 32.8986579792 320
191.245258452 32.6125826925 318
191.245258452 32.6125826925 316
191.245258452 32.6125826925 314
190.406463459 32.4695450491 312
189.567668466 32.3265074057 310
189.567668466 32.3265074057 308
189.567668466 32.3265074057 306
189.567668466 32.3265074057 304
188.728873473 32.1834697623 302
188.728873473 32.1834697623 300
188.728873473 32.1834697623 298
187.89007848 32.0404321189 296
187.89007848 32.0404321189 294
187.89007848 32.0404321189 292
187.89007848 32.0404321189 290
187.89007848 32.0404321189 288
186.212488493 31.7543568321 286
186.212488493 31.7543568321 284
-45.2949296335 -7.72403274295 282
-46.9725196199 -8.01010802973 280
-48.6501096063 -8.2961833165 278
-51.166494586 -8.72529624667 276
-52.8440845724 -9.01137153344 274
-53.6828795656 -9.15440917683 272
-57.0380595385 -9.72655975038 270
-59.5544445181 -10.1556726805 268
-62.9096244909 -10.7278232541 266
-66.2648044638 -11.2999738277 264
-69.6199844366 -11.8721244012 262
-74.6527543959 -12.7303502615 260
-79.6855243552 -13.5885761219 258
-79.6855243552 -13.5885761219 256
-115.753709063 -19.7391947875 254
-115.753709063 -19.7391947875 252
-115.753709063 -19.7391947875 250
-116.592504057 -19.8822324309 248
-115.753709063 -19.7391947875 246
-114.91491407 -19.5961571442 244
-115.753709063 -19.7391947875 242
-116.592504057 -19.8822324309 240
-117.43129905 -20.0252700743 238
-117.43129905 -20.0252700743 236
-118.270094043 -20.1683077177 234
-118.270094043 -20.1683077177 232
-119.108889036 -20.3113453611 230
-118.270094043 -20.1683077177 228
-118.270094043 -20.1683077177 226
-117.43129905 -20.0252700743 224
-116.592504057 -19.8822324309 222
-116.592504057 -19.8822324309 220
-115.753709063 -19.7391947875 218
-116.592504057 -19.8822324309 216
-120.786479023 -20.5974206479 214
-121.625274016 -20.7404582913 212
-121.625274016 -20.7404582913 210
-121.625274016 -20.7404582913 208
-120.786479023 -20.5974206479 206
-121.625274016 -20.7404582913 204
-121.625274016 -20.7404582913 202
-121.625274016 -20.7404582913 200
-121.625274016 -20.7404582913 198
-120.786479023 -20.5974206479 196
-121.625274016 -20.7404582913 194
-121.625274016 -20.7404582913 192
-121.625274016 -20.7404582913 190
-120.786479023 -20.5974206479 188
-44.4561346403 -7.58099509956 186
-120.786479023 -20.5974206479 184
-121.625274016 -20.7404582913 182
-121.625274016 -20.7404582913 180
-121.625274016 -20.7404582913 178
-121.625274016 -20.7404582913 176
-121.625274016 -20.7404582913 174
-122.464069009 -20.8834959346 172
-122.464069009 -20.8834959346 170
-122.464069009 -20.8834959346 168
-122.464069009 -20.8834959346 166
-123.302864002 -21.026533578 164
-123.302864002 -21.026533578 162
-124.141658995 -21.1695712214 160
-124.141658995 -21.1695712214 158
-124.141658995 -21.1695712214 156
-124.141658995 -21.1695712214 154
224.117550884 42.1253259731 554
224.117550884 42.1253259731 552
223.281291365 41.9681419209 550
222.445031847 41.8109578688 546
223.281291365 41.9681419209 544
221.608772329 41.6537738167 534
218.263734256 41.0250376081 506
216.59121522 40.7106695038 504
217.427474738 40.867853556 502
217.427474738 40.867853556 500
217.427474738 40.867853556 498
216.59121522 40.7106695038 496
216.59121522 40.7106695038 494
215.754955701 40.5534854517 492
215.754955701 40.5534854517 490
214.918696183 40.3963013995 488
215.754955701 40.5534854517 486
215.754955701 40.5534854517 484
214.918696183 40.3963013995 482
213.246177147 40.0819332953 480
214.082436665 40.2391173474 478
214.082436665 40.2391173474 476
214.082436665 40.2391173474 474
213.246177147 40.0819332953 472
213.246177147 40.0819332953 470
213.246177147 40.0819332953 468
213.246177147 40.0819332953 464
212.409917629 39.9247492431 456
210.737398592 39.6103811389 452
209.901139074 39.4531970867 450
209.901139074 39.4531970867 448
209.901139074 39.4531970867 446
209.064879556 39.2960130346 444
209.064879556 39.2960130346 442
209.064879556 39.2960130346 440
209.064879556 39.2960130346 438
207.392360519 38.9816449303 436
208.228620037 39.1388289824 434
207.392360519 38.9816449303 432
207.392360519 38.9816449303 430
208.228620037 39.1388289824 428
206.556101001 38.8244608782 422
205.719841483 38.667276826 414
203.211062928 38.1957246696 410
204.047322446 38.3529087217 408
204.047322446 38.3529087217 406
203.211062928 38.1957246696 404
203.211062928 38.1957246696 402
202.37480341 38.0385406175 400
203.211062928 38.1957246696 398
203.211062928 38.1957246696 396
202.37480341 38.0385406175 394
202.37480341 38.0385406175 392
202.37480341 38.0385406175 390
202.37480341 38.0385406175 388
201.538543892 37.8813565653 386
200.702284373 37.7241725132 384
201.538543892 37.8813565653 382
200.702284373 37.7241725132 380
200.702284373 37.7241725132 378
200.702284373 37.7241725132 376
199.866024855 37.5669884611 374
199.866024855 37.5669884611 372
199.029765337 37.4098044089 370
198.193505819 37.2526203568 368
198.193505819 37.2526203568 366
198.193505819 37.2526203568 364
199.029765337 37.4098044089 362
197.357246301 37.0954363046 360
197.357246301 37.0954363046 358
197.357246301 37.0954363046 356
197.357246301 37.0954363046 354
196.520986782 36.9382522525 352
195.684727264 36.7810682004 350
194.848467746 36.6238841482 348
194.848467746 36.6238841482 346
194.848467746 36.6238841482 344
194.848467746 36.6238841482 342
194.848467746 36.6238841482 340
194.848467746 36.6238841482 338
194.848467746 36.6238841482 336
194.012208228 36.4667000961 334
194.012208228 36.4667000961 332
194.012208228 36.4667000961 330
193.175948709 36.309516044 328
192.339689191 36.1523319918 326
191.503429673 35.9951479397 324
191.503429673 35.9951479397 322
191.503429673 35.9951479397 320
190.667170155 35.8379638875 318
190.667170155 35.8379638875 316
189.830910637 35.6807798354 314
189.830910637 35.6807798354 312
188.994651118 35.5235957833 310
188.994651118 35.5235957833 308
188.994651118 35.5235957833 306
188.994651118 35.5235957833 304
188.1583916 35.3664117311 302
188.1583916 35.3664117311 300
188.1583916 35.3664117311 298
187.322132082 35.209227679 296
187.322132082 35.209227679 294
187.322132082 35.209227679 292
187.322132082 35.209227679 290
187.322132082 35.209227679 288
185.649613045 34.8948595747 286
186.485872564 35.0520436268 284
-45.158013984 -8.48793881547 282
-46.8305330205 -8.80230691975 280
-48.5030520569 -9.11667502402 278
-51.0118306116 -9.58822718044 276
-52.684349648 -9.90259528471 274
-54.3568686845 -10.216963389 272
-56.8656472391 -10.6885155454 270
-60.210685312 -11.317251754 268
-63.5557233849 -11.9459879625 266
-66.0645019396 -12.4175401189 264
-69.4095400125 -13.0462763275 262
-74.4270971218 -13.9893806403 260
-78.6083947129 -14.775300901 258
-115.403813515 -21.6913991951 256
-114.567553997 -21.5342151429 254
-115.403813515 -21.6913991951 252
-115.403813515 -21.6913991951 250
-116.240073033 -21.8485832472 248
-115.403813515 -21.6913991951 246
-114.567553997 -21.5342151429 244
-116.240073033 -21.8485832472 242
-117.076332551 -22.0057672994 240
-117.076332551 -22.0057672994 238
-117.912592069 -22.1629513515 236
-117.912592069 -22.1629513515 234
-117.076332551 -22.0057672994 232
-118.748851588 -22.3201354036 230
-117.912592069 -22.1629513515 228
-117.912592069 -22.1629513515 226
-116.240073033 -21.8485832472 224
-115.403813515 -21.6913991951 222
-115.403813515 -21.6913991951 220
-115.403813515 -21.6913991951 218
-119.585111106 -22.4773194558 216
-120.421370624 -22.6345035079 214
-120.421370624 -22.6345035079 212
-120.421370624 -22.6345035079 210
-120.421370624 -22.6345035079 208
-120.421370624 -22.6345035079 206
-120.421370624 -22.6345035079 204
-120.421370624 -22.6345035079 202
-120.421370624 -22.6345035079 200
-120.421370624 -22.6345035079 198
-120.421370624 -22.6345035079 196
-120.421370624 -22.6345035079 194
-120.421370624 -22.6345035079 192
-120.421370624 -22.6345035079 190
-40.9767163929 -7.70201855478 188
-40.1404568747 -7.54483450264 186
-120.421370624 -22.6345035079 184
-120.421370624 -22.6345035079 182
-120.421370624 -22.6345035079 180
-120.421370624 -22.6345035079 178
-120.421370624 -22.6345035079 176
-120.421370624 -22.6345035079 174
-120.421370624 -22.6345035079 172
-120.421370624 -22.6345035079 170
-122.093889661 -22.9488716122 168
-122.093889661 -22.9488716122 166
-122.093889661 -22.9488716122 164
-122.093889661 -22.9488716122 162
-122.930149179 -23.1060556643 160
-123.766408697 -23.2632397165 158
-123.766408697 -23.2632397165 156
-123.766408697 -23.2632397165 154
223.374108479 45.9045462208 554
223.374108479 45.9045462208 552
222.540622999 45.7332606006 550
221.70713752 45.5619749804 546
222.540622999 45.7332606006 544
220.040166561 45.2194037399 534
219.206681082 45.0481181197 528
220.040166561 45.2194037399 524
219.206681082 45.0481181197 522
218.373195602 44.8768324995 518
217.539710123 44.7055468792 506
216.706224644 44.534261259 504
216.706224644 44.534261259 500
216.706224644 44.534261259 498
215.872739164 44.3629756388 496
215.872739164 44.3629756388 494
215.039253685 44.1916900186 492
215.039253685 44.1916900186 490
215.039253685 44.1916900186 488
214.205768205 44.0204043983 486
214.205768205 44.0204043983 484
213.372282726 43.8491187781 482
213.372282726 43.8491187781 480
213.372282726 43.8491187781 478
213.372282726 43.8491187781 476
213.372282726 43.8491187781 474
212.538797247 43.6778331579 472
213.372282726 43.8491187781 470
212.538797247 43.6778331579 468
211.705311767 43.5065475376 466
212.538797247 43.6778331579 464
211.705311767 43.5065475376 462
210.038340808 43.1639762972 454
209.204855329 42.992690677 452
209.204855329 42.992690677 450
209.204855329 42.992690677 448
209.204855329 42.992690677 446
209.204855329 42.992690677 444
209.204855329 42.992690677 442
208.37136985 42.8214050567 440
209.204855329 42.992690677 438
207.53788437 42.6501194365 436
206.704398891 42.4788338163 434
207.53788437 42.6501194365 432
206.704398891 42.4788338163 430
207.53788437 42.6501194365 428
205.037427932 42.1362625758 424
205.870913411 42.3075481961 422
206.704398891 42.4788338163 420
205.870913411 42.3075481961 418
205.037427932 42.1362625758 416
204.203942453 41.9649769556 414
204.203942453 41.9649769556 412
203.370456973 41.7936913354 410
203.370456973 41.7936913354 408
204.203942453 41.9649769556 406
202.536971494 41.6224057151 404
202.536971494 41.6224057151 402
202.536971494 41.6224057151 400
202.536971494 41.6224057151 398
202.536971494 41.6224057151 396
201.703486014 41.4511200949 394
201.703486014 41.4511200949 392
201.703486014 41.4511200949 390
201.703486014 41.4511200949 388
200.870000535 41.2798344747 386
200.036515056 41.1085488545 384
200.036515056 41.1085488545 382
200.036515056 41.1085488545 380
200.036515056 41.1085488545 378
200.036515056 41.1085488545 376
198.369544097 40.765977614 374
199.203029576 40.9372632342 372
199.203029576 40.9372632342 370
197.536058617 40.5946919938 368
197.536058617 40.5946919938 366
197.536058617 40.5946919938 364
198.369544097 40.765977614 362
196.702573138 40.4234063736 360
196.702573138 40.4234063736 358
196.702573138 40.4234063736 356
195.869087659 40.2521207533 354
195.035602179 40.0808351331 352
195.035602179 40.0808351331 350
194.2021167 39.9095495129 348
194.2021167 39.9095495129 346
194.2021167 39.9095495129 344
195.035602179 40.0808351331 342
194.2021167 39.9095495129 340
194.2021167 39.9095495129 338
194.2021167 39.9095495129 336
193.36863122 39.7382638927 334
193.36863122 39.7382638927 332
192.535145741 39.5669782724 330
191.701660262 39.3956926522 328
191.701660262 39.3956926522 326
191.701660262 39.3956926522 324
190.034689303 39.0531214117 322
191.701660262 39.3956926522 320
190.034689303 39.0531214117 318
190.034689303 39.0531214117 316
190.034689303 39.0531214117 314
189.201203823 38.8818357915 312
188.367718344 38.7105501713 310
188.367718344 38.7105501713 308
188.367718344 38.7105501713 306
188.367718344 38.7105501713 304
187.534232865 38.5392645511 302
187.534232865 38.5392645511 300
187.534232865 38.5392645511 298
186.700747385 38.3679789308 296
186.700747385 38.3679789308 294
186.700747385 38.3679789308 292
186.700747385 38.3679789308 290
185.867261906 38.1966933106 288
185.033776426 38.0254076904 286
185.033776426 38.0254076904 284
-45.0082158875 -9.24942349225 282
-46.6751868463 -9.59199473271 280
-49.1756432845 -10.1058515934 278
-50.8426142433 -10.4484228338 276
-52.5095852021 -10.7909940743 274
-54.1765561609 -11.1335653148 272
-57.5104980785 -11.8187077957 270
-60.0109545167 -12.3325646563 268
-63.3448964343 -13.0177071372 266
-65.8453528725 -13.5315639979 264
-69.1792947901 -14.2167064788 262
-75.0136931459 -15.4157058204 260
-77.5141495841 -15.9295626811 258
-115.020996157 -23.6374155913 256
-114.187510678 -23.4661299711 254
-114.187510678 -23.4661299711 252
-115.020996157 -23.6374155913 250
-115.020996157 -23.6374155913 248
-115.020996157 -23.6374155913 246
-115.020996157 -23.6374155913 244
-115.020996157 -23.6374155913 242
-115.854481636 -23.8087012115 240
-117.521452595 -24.151272452 238
-116.687967116 -23.9799868318 236
-117.521452595 -24.151272452 234
-118.354938075 -24.3225580722 232
-117.521452595 -24.151272452 230
-116.687967116 -23.9799868318 228
-116.687967116 -23.9799868318 226
-115.854481636 -23.8087012115 224
-115.854481636 -23.8087012115 222
-114.187510678 -23.4661299711 220
-115.020996157 -23.6374155913 218
-119.188423554 -24.4938436925 216
-120.021909033 -24.6651293127 214
-120.021909033 -24.6651293127 212
-120.021909033 -24.6651293127 210
-120.021909033 -24.6651293127 208
-120.021909033 -24.6651293127 206
-120.021909033 -24.6651293127 204
-120.021909033 -24.6651293127 202
-120.021909033 -24.6651293127 200
-120.021909033 -24.6651293127 198
-120.021909033 -24.6651293127 196
-120.021909033 -24.6651293127 194
-120.021909033 -24.6651293127 192
-120.021909033 -24.6651293127 190
-39.1738175317 -8.05042415067 188
-39.1738175317 -8.05042415067 186
-120.021909033 -24.6651293127 184
-120.021909033 -24.6651293127 182
-120.021909033 -24.6651293127 180
-120.021909033 -24.6651293127 178
-120.021909033 -24.6651293127 176
-120.021909033 -24.6651293127 174
-120.021909033 -24.6651293127 172
-120.021909033 -24.6651293127 170
-121.688879992 -25.0077005531 168
-121.688879992 -25.0077005531 166
-121.688879992 -25.0077005531 164
-121.688879992 -25.0077005531 162
-122.522365472 -25.1789861734 160
-123.355850951 -25.3502717936 158
-123.355850951 -25.3502717936 156
-123.355850951 -25.3502717936 154
222.566943052 49.6706710546 554
222.566943052 49.6706710546 552
221.736469384 49.4853327298 550
220.075522047 49.1146560801 534
218.414574711 48.7439794305 524
218.414574711 48.7439794305 522
216.753627375 48.3733027808 506
215.092680039 48.0026261312 504
215.923153707 48.187964456 500
215.923153707 48.187964456 498
215.092680039 48.0026261312 496
215.092680039 48.0026261312 494
214.262206371 47.8172878063 492
214.262206371 47.8172878063 490
214.262206371 47.8172878063 488
214.262206371 47.8172878063 486
214.262206371 47.8172878063 484
211.770785366 47.2612728318 480
212.601259035 47.4466111567 478
212.601259035 47.4466111567 476
212.601259035 47.4466111567 474
212.601259035 47.4466111567 472
212.601259035 47.4466111567 470
211.770785366 47.2612728318 468
212.601259035 47.4466111567 466
210.940311698 47.075934507 464
210.940311698 47.075934507 462
210.940311698 47.075934507 456
208.448890694 46.5199195325 452
208.448890694 46.5199195325 450
208.448890694 46.5199195325 448
208.448890694 46.5199195325 446
207.618417026 46.3345812077 444
208.448890694 46.5199195325 442
208.448890694 46.5199195325 440
207.618417026 46.3345812077 438
206.787943358 46.1492428828 436
206.787943358 46.1492428828 434
205.95746969 45.963904558 430
206.787943358 46.1492428828 428
205.126996022 45.7785662332 422
204.296522353 45.5932279084 414
202.635575017 45.2225512587 410
201.805101349 45.0372129339 404
201.805101349 45.0372129339 402
201.805101349 45.0372129339 398
200.974627681 44.851874609 394
200.974627681 44.851874609 392
200.144154013 44.6665362842 390
200.144154013 44.6665362842 388
199.313680345 44.4811979594 386
200.144154013 44.6665362842 384
200.144154013 44.6665362842 382
199.313680345 44.4811979594 380
199.313680345 44.4811979594 378
199.313680345 44.4811979594 376
198.483206677 44.2958596345 374
198.483206677 44.2958596345 372
197.652733009 44.1105213097 370
196.822259341 43.9251829849 368
196.822259341 43.9251829849 366
196.822259341 43.9251829849 364
196.822259341 43.9251829849 362
195.991785672 43.73984466 360
195.991785672 43.73984466 358
195.161312004 43.5545063352 356
195.991785672 43.73984466 354
195.161312004 43.5545063352 352
194.330838336 43.3691680104 350
194.330838336 43.3691680104 348
193.500364668 43.1838296856 346
193.500364668 43.1838296856 344
194.330838336 43.3691680104 342
193.500364668 43.1838296856 340
193.500364668 43.1838296856 338
192.669891 42.9984913607 336
191.839417332 42.8131530359 334
192.669891 42.9984913607 332
192.669891 42.9984913607 330
191.839417332 42.8131530359 328
191.008943664 42.6278147111 326
190.178469996 42.4424763862 324
189.347996328 42.2571380614 322
190.178469996 42.4424763862 320
189.347996328 42.2571380614 318
189.347996328 42.2571380614 316
189.347996328 42.2571380614 314
188.51752266 42.0717997366 312
188.51752266 42.0717997366 310
187.687048991 41.8864614117 308
187.687048991 41.8864614117 306
187.687048991 41.8864614117 304
186.856575323 41.7011230869 302
186.856575323 41.7011230869 300
186.856575323 41.7011230869 298
186.026101655 41.5157847621 296
186.026101655 41.5157847621 294
186.026101655 41.5157847621 292
186.026101655 41.5157847621 290
186.026101655 41.5157847621 288
185.195627987 41.3304464372 286
184.365154319 41.1451081124 284
-44.8455780776 -10.0082695409 282
-46.5065254138 -10.3789461905 280
-48.9979464181 -10.934961165 278
-51.4893674224 -11.4909761395 276
-52.3198410905 -11.6763144643 274
-54.8112620948 -12.2323294388 272
-58.1331567673 -12.9736827382 270
-59.7941041035 -13.3443593878 268
-63.946472444 -14.271051012 266
-68.0988407845 -15.1977426361 264
-73.0816827931 -16.3097725851 262
-77.2340511336 -17.2364642093 260
-114.605366198 -25.5766888266 258
-112.944418862 -25.206012177 256
-112.113945194 -25.0206738521 254
-112.944418862 -25.206012177 252
-113.77489253 -25.3913505018 250
-113.77489253 -25.3913505018 248
-114.605366198 -25.5766888266 246
-113.77489253 -25.3913505018 244
-114.605366198 -25.5766888266 242
-115.435839866 -25.7620271515 240
-116.266313535 -25.9473654763 238
-117.096787203 -26.1327038011 236
-115.435839866 -25.7620271515 234
-116.266313535 -25.9473654763 232
-116.266313535 -25.9473654763 230
-115.435839866 -25.7620271515 228
-114.605366198 -25.5766888266 226
-114.605366198 -25.5766888266 224
-112.944418862 -25.206012177 222
-112.113945194 -25.0206738521 220
-117.927260871 -26.318042126 218
-118.757734539 -26.5033804508 216
-118.757734539 -26.5033804508 214
-118.757734539 -26.5033804508 212
-118.757734539 -26.5033804508 210
-117.927260871 -26.318042126 208
-117.927260871 -26.318042126 206
-118.757734539 -26.5033804508 204
-118.757734539 -26.5033804508 202
-118.757734539 -26.5033804508 200
-118.757734539 -26.5033804508 198
-118.757734539 -26.5033804508 196
-118.757734539 -26.5033804508 194
-119.588208207 -26.6887187756 192
-119.588208207 -26.6887187756 190
-35.7103677285 -7.96954796772 188
-34.8798940604 -7.78420964289 186
-119.588208207 -26.6887187756 184
-118.757734539 -26.5033804508 182
-119.588208207 -26.6887187756 180
-119.588208207 -26.6887187756 178
-119.588208207 -26.6887187756 176
-119.588208207 -26.6887187756 174
-119.588208207 -26.6887187756 172
-119.588208207 -26.6887187756 170
-119.588208207 -26.6887187756 168
-120.418681875 -26.8740571005 166
-121.249155543 -27.0593954253 164
-121.249155543 -27.0593954253 162
-121.249155543 -27.0593954253 160
-122.079629211 -27.2447337501 158
-122.910102879 -27.4300720749 156
-122.910102879 -27.4300720749 154
221.696284867 53.4226260937 554
221.696284867 53.4226260937 552
220.869059923 53.2232879366 550
221.696284867 53.4226260937 548
220.869059923 53.2232879366 544
218.387385093 52.6252734654 534
215.078485318 51.8279208372 506
215.078485318 51.8279208372 504
215.078485318 51.8279208372 500
214.251260375 51.6285826801 496
215.078485318 51.8279208372 494
213.424035431 51.429244523 492
214.251260375 51.6285826801 490
212.596810488 51.229906366 488
212.596810488 51.229906366 486
213.424035431 51.429244523 484
211.769585544 51.0305682089 482
210.942360601 50.8312300518 480
211.769585544 51.0305682089 478
211.769585544 51.0305682089 476
211.769585544 51.0305682089 474
210.942360601 50.8312300518 472
210.942360601 50.8312300518 470
210.942360601 50.8312300518 468
210.115135657 50.6318918948 466
210.942360601 50.8312300518 464
210.115135657 50.6318918948 456
208.46068577 50.2332155806 452
207.633460827 50.0338774236 450
207.633460827 50.0338774236 448
207.633460827 50.0338774236 446
206.806235883 49.8345392665 444
207.633460827 50.0338774236 442
206.806235883 49.8345392665 440
206.806235883 49.8345392665 438
205.151785996 49.4358629524 436
205.151785996 49.4358629524 434
205.151785996 49.4358629524 430
205.97901094 49.6352011094 428
205.97901094 49.6352011094 426
203.497336109 49.0371866382 424
204.324561052 49.2365247953 422
203.497336109 49.0371866382 418
203.497336109 49.0371866382 414
201.015661278 48.439172167 410
201.842886222 48.6385103241 406
201.015661278 48.439172167 404
201.015661278 48.439172167 402
201.015661278 48.439172167 400
201.842886222 48.6385103241 398
201.015661278 48.439172167 396
200.188436335 48.23983401 394
200.188436335 48.23983401 392
200.188436335 48.23983401 390
199.361211391 48.0404958529 388
198.533986448 47.8411576958 386
198.533986448 47.8411576958 384
198.533986448 47.8411576958 382
198.533986448 47.8411576958 380
198.533986448 47.8411576958 378
198.533986448 47.8411576958 376
197.706761504 47.6418195388 374
197.706761504 47.6418195388 372
196.879536561 47.4424813817 370
196.879536561 47.4424813817 368
196.879536561 47.4424813817 366
196.052311617 47.2431432246 364
196.879536561 47.4424813817 362
195.225086674 47.0438050676 360
195.225086674 47.0438050676 358
194.39786173 46.8444669105 356
194.39786173 46.8444669105 354
194.39786173 46.8444669105 352
193.570636787 46.6451287534 350
192.743411843 46.4457905964 348
192.743411843 46.4457905964 346
192.743411843 46.4457905964 344
193.570636787 46.6451287534 342
192.743411843 46.4457905964 340
192.743411843 46.4457905964 338
192.743411843 46.4457905964 336
191.088961956 46.0471142822 334
191.088961956 46.0471142822 332
191.9161869 46.2464524393 330
191.088961956 46.0471142822 328
190.261737012 45.8477761252 326
189.434512069 45.6484379681 324
189.434512069 45.6484379681 322
189.434512069 45.6484379681 320
188.607287125 45.449099811 318
188.607287125 45.449099811 316
188.607287125 45.449099811 314
187.780062182 45.249761654 312
186.952837238 45.0504234969 310
186.952837238 45.0504234969 308
186.952837238 45.0504234969 306
186.125612295 44.8510853399 304
186.125612295 44.8510853399 302
186.125612295 44.8510853399 300
186.125612295 44.8510853399 298
185.298387351 44.6517471828 296
185.298387351 44.6517471828 294
185.298387351 44.6517471828 292
184.471162408 44.4524090257 290
185.298387351 44.6517471828 288
183.643937464 44.2530708687 286
184.471162408 44.4524090257 284
-43.8429220072 -10.5649223245 282
-46.3245968378 -11.1629367957 280
-48.8062716684 -11.7609512669 278
-51.287946499 -12.3589657381 276
-52.1151714425 -12.5583038952 274
-54.5968462731 -13.1563183664 272
-57.0785211037 -13.7543328376 270
-59.5601959343 -14.3523473088 268
-63.696320652 -15.3490380941 266
-67.8324453697 -16.3457288794 264
-72.7957950308 -17.5417578218 262
-75.2774698614 -18.139772293 260
-112.50259232 -27.109989361 258
-112.50259232 -27.109989361 256
-111.675367377 -26.9106512039 254
-112.50259232 -27.109989361 252
-113.329817264 -27.309327518 250
-114.157042207 -27.5086656751 248
-114.984267151 -27.7080038322 246
-114.157042207 -27.5086656751 244
-114.157042207 -27.5086656751 242
-114.984267151 -27.7080038322 240
-114.984267151 -27.7080038322 238
-114.984267151 -27.7080038322 236
-115.811492095 -27.9073419892 234
-114.984267151 -27.7080038322 232
-115.811492095 -27.9073419892 230
-114.157042207 -27.5086656751 228
-114.984267151 -27.7080038322 226
-113.329817264 -27.309327518 224
-112.50259232 -27.109989361 222
-112.50259232 -27.109989361 220
-118.293166925 -28.5053564604 218
-118.293166925 -28.5053564604 216
-118.293166925 -28.5053564604 214
-118.293166925 -28.5053564604 212
-118.293166925 -28.5053564604 210
-118.293166925 -28.5053564604 208
-118.293166925 -28.5053564604 206
-118.293166925 -28.5053564604 204
-118.293166925 -28.5053564604 202
-118.293166925 -28.5053564604 200
-118.293166925 -28.5053564604 198
-118.293166925 -28.5053564604 196
-118.293166925 -28.5053564604 194
-118.293166925 -28.5053564604 192
-33.9162226848 -8.17286443971 190
-33.9162226848 -8.17286443971 188
-34.7434476284 -8.37220259677 186
-118.293166925 -28.5053564604 184
-118.293166925 -28.5053564604 182
-118.293166925 -28.5053564604 180
-118.293166925 -28.5053564604 178
-118.293166925 -28.5053564604 176
-119.120391869 -28.7046946175 174
-118.293166925 -28.5053564604 172
-119.120391869 -28.7046946175 170
-119.120391869 -28.7046946175 168
-119.120391869 -28.7046946175 166
-119.947616812 -28.9040327746 164
-120.774841756 -29.1033709316 162
-120.774841756 -29.1033709316 160
-121.602066699 -29.3027090887 158
-121.602066699 -29.3027090887 156
-121.602066699 -29.3027090887 154
222.409862765 57.5859032457 572
222.409862765 57.5859032457 566
219.938642068 56.9460598763 554
219.938642068 56.9460598763 552
219.938642068 56.9460598763 550
219.114901835 56.7327787532 544
218.291161603 56.5194976301 534
216.643681138 56.0929353838 528
217.467421371 56.3062165069 526
216.643681138 56.0929353838 522
216.643681138 56.0929353838 518
215.819940906 55.8796542607 508
214.996200673 55.6663731375 506
213.348720208 55.2398108913 504
214.172460441 55.4530920144 502
214.172460441 55.4530920144 500
214.172460441 55.4530920144 498
213.348720208 55.2398108913 496
213.348720208 55.2398108913 494
212.524979976 55.0265297681 492
212.524979976 55.0265297681 490
212.524979976 55.0265297681 488
212.524979976 55.0265297681 486
212.524979976 55.0265297681 484
211.701239743 54.813248645 482
210.053759278 54.3866863987 480
210.877499511 54.5999675219 478
210.877499511 54.5999675219 476
210.877499511 54.5999675219 474
210.877499511 54.5999675219 472
210.877499511 54.5999675219 470
210.053759278 54.3866863987 468
210.053759278 54.3866863987 466
210.053759278 54.3866863987 464
210.053759278 54.3866863987 462
209.230019046 54.1734052756 456
208.406278813 53.9601241525 454
207.582538581 53.7468430294 452
207.582538581 53.7468430294 450
206.758798348 53.5335619062 448
206.758798348 53.5335619062 446
206.758798348 53.5335619062 444
206.758798348 53.5335619062 442
205.935058116 53.3202807831 440
205.935058116 53.3202807831 438
205.111317884 53.10699966 436
204.287577651 52.8937185368 434
205.111317884 53.10699966 432
205.111317884 53.10699966 430
204.287577651 52.8937185368 428
204.287577651 52.8937185368 426
203.463837419 52.6804374137 424
203.463837419 52.6804374137 422
204.287577651 52.8937185368 420
203.463837419 52.6804374137 418
202.640097186 52.4671562906 416
202.640097186 52.4671562906 414
201.816356954 52.2538751674 412
200.992616721 52.0405940443 410
200.992616721 52.0405940443 408
200.992616721 52.0405940443 406
200.168876489 51.8273129212 404
200.168876489 51.8273129212 402
200.168876489 51.8273129212 400
199.345136256 51.614031798 398
199.345136256 51.614031798 396
199.345136256 51.614031798 394
199.345136256 51.614031798 392
199.345136256 51.614031798 390
198.521396024 51.4007506749 388
198.521396024 51.4007506749 386
198.521396024 51.4007506749 384
198.521396024 51.4007506749 382
197.697655791 51.1874695518 380
197.697655791 51.1874695518 378
197.697655791 51.1874695518 376
196.873915559 50.9741884286 374
197.697655791 51.1874695518 372
196.050175326 50.7609073055 370
195.226435094 50.5476261824 368
195.226435094 50.5476261824 366
196.050175326 50.7609073055 364
196.050175326 50.7609073055 362
194.402694862 50.3343450592 360
194.402694862 50.3343450592 358
194.402694862 50.3343450592 356
193.578954629 50.1210639361 354
193.578954629 50.1210639361 352
192.755214397 49.907782813 350
191.931474164 49.6945016898 348
191.931474164 49.6945016898 346
191.931474164 49.6945016898 344
191.931474164 49.6945016898 342
191.931474164 49.6945016898 340
191.931474164 49.6945016898 338
191.931474164 49.6945016898 336
191.107733932 49.4812205667 334
191.107733932 49.4812205667 332
190.283993699 49.2679394436 330
191.107733932 49.4812205667 328
189.460253467 49.0546583204 326
188.636513234 48.8413771973 324
188.636513234 48.8413771973 322
188.636513234 48.8413771973 320
187.812773002 48.6280960742 318
186.989032769 48.414814951 316
187.812773002 48.6280960742 314
186.989032769 48.414814951 312
186.165292537 48.2015338279 310
186.165292537 48.2015338279 308
186.165292537 48.2015338279 306
186.165292537 48.2015338279 304
185.341552304 47.9882527048 302
185.341552304 47.9882527048 300
185.341552304 47.9882527048 298
185.341552304 47.9882527048 296
184.517812072 47.7749715816 294
184.517812072 47.7749715816 292
184.517812072 47.7749715816 290
183.694071839 47.5616904585 288
182.870331607 47.3484093354 286
182.870331607 47.3484093354 284
-44.4819725531 -11.5171806491 282
-46.129453018 -11.9437428954 280
-49.4244139478 -12.7968673879 278
-51.0718944128 -13.2234296342 276
-51.8956346452 -13.4367107573 274
-54.3668553426 -14.0765541267 272
-57.6618162725 -14.9296786193 270
-60.9567772023 -15.7828031118 268
-64.2517381322 -16.6359276043 266
-68.3704392945 -17.70233322 264
-74.1366209218 -19.1953010819 262
-112.852411848 -29.2195138691 260
-112.028671615 -29.006232746 258
-112.028671615 -29.006232746 256
-112.852411848 -29.2195138691 254
-112.028671615 -29.006232746 252
-112.852411848 -29.2195138691 250
-112.852411848 -29.2195138691 248
-112.852411848 -29.2195138691 246
-112.028671615 -29.006232746 244
-112.852411848 -29.2195138691 242
-114.499892313 -29.6460761154 240
-114.499892313 -29.6460761154 238
-113.67615208 -29.4327949923 236
-113.67615208 -29.4327949923 234
-113.67615208 -29.4327949923 232
-113.67615208 -29.4327949923 230
-112.028671615 -29.006232746 228
-112.852411848 -29.2195138691 226
-112.852411848 -29.2195138691 224
-111.204931383 -28.7929516229 222
-111.204931383 -28.7929516229 220
-117.794853242 -30.4992006079 218
-117.794853242 -30.4992006079 216
-117.794853242 -30.4992006079 214
-117.794853242 -30.4992006079 212
-117.794853242 -30.4992006079 210
-117.794853242 -30.4992006079 208
-117.794853242 -30.4992006079 206
-116.97111301 -30.2859194848 204
-117.794853242 -30.4992006079 202
-117.794853242 -30.4992006079 200
-117.794853242 -30.4992006079 198
-117.794853242 -30.4992006079 196
-116.97111301 -30.2859194848 194
-32.9496092986 -8.53124492529 192
-32.9496092986 -8.53124492529 190
-32.1258690661 -8.31796380216 188
-32.9496092986 -8.53124492529 186
-117.794853242 -30.4992006079 184
-117.794853242 -30.4992006079 182
-117.794853242 -30.4992006079 180
-117.794853242 -30.4992006079 178
-117.794853242 -30.4992006079 176
-117.794853242 -30.4992006079 174
-117.794853242 -30.4992006079 172
-117.794853242 -30.4992006079 170
-117.794853242 -30.4992006079 168
-118.618593475 -30.7124817311 166
-118.618593475 -30.7124817311 164
-119.442333707 -30.9257628542 162
-119.442333707 -30.9257628542 160
-120.26607394 -31.1390439773 158
-121.089814172 -31.3523251005 156
-120.26607394 -31.1390439773 154
218.945481243 60.6525865356 554
218.945481243 60.6525865356 552
218.945481243 60.6525865356 550
218.125460714 60.4254232902 548
218.125460714 60.4254232902 546
218.945481243 60.6525865356 544
217.305440185 60.1982600447 534
214.845378598 59.5167703084 522
214.845378598 59.5167703084 508
214.025358069 59.2896070629 506
212.385317011 58.835280572 504
213.20533754 59.0624438175 500
213.20533754 59.0624438175 498
212.385317011 58.835280572 496
212.385317011 58.835280572 494
211.565296482 58.6081173266 492
211.565296482 58.6081173266 490
211.565296482 58.6081173266 488
210.745275953 58.3809540811 486
211.565296482 58.6081173266 484
210.745275953 58.3809540811 482
209.925255424 58.1537908356 480
209.925255424 58.1537908356 478
209.925255424 58.1537908356 476
209.925255424 58.1537908356 474
209.105234895 57.9266275902 472
209.925255424 58.1537908356 470
209.105234895 57.9266275902 468
209.105234895 57.9266275902 466
209.105234895 57.9266275902 464
207.465193837 57.4723010993 456
208.285214366 57.6994643447 454
206.645173308 57.2451378538 452
205.825152779 57.0179746084 450
205.825152779 57.0179746084 448
205.00513225 56.7908113629 446
205.825152779 57.0179746084 444
205.825152779 57.0179746084 442
205.00513225 56.7908113629 440
205.00513225 56.7908113629 438
204.185111721 56.5636481175 436
203.365091192 56.336484872 434
203.365091192 56.336484872 432
203.365091192 56.336484872 430
204.185111721 56.5636481175 428
203.365091192 56.336484872 426
201.725050134 55.8821583811 424
203.365091192 56.336484872 422
202.545070663 56.1093216266 418
201.725050134 55.8821583811 416
201.725050134 55.8821583811 414
200.085009076 55.4278318902 412
199.264988547 55.2006686448 410
200.085009076 55.4278318902 408
200.085009076 55.4278318902 406
199.264988547 55.2006686448 404
199.264988547 55.2006686448 402
199.264988547 55.2006686448 400
199.264988547 55.2006686448 398
199.264988547 55.2006686448 396
198.444968018 54.9735053993 394
198.444968018 54.9735053993 392
198.444968018 54.9735053993 390
198.444968018 54.9735053993 388
197.624947489 54.7463421539 386
196.80492696 54.5191789084 384
197.624947489 54.7463421539 382
196.80492696 54.5191789084 380
196.80492696 54.5191789084 378
196.80492696 54.5191789084 376
195.164885902 54.0648524175 374
195.984906431 54.292015663 372
195.164885902 54.0648524175 370
195.164885902 54.0648524175 368
194.344865373 53.8376891721 366
195.164885902 54.0648524175 364
194.344865373 53.8376891721 362
193.524844844 53.6105259266 360
192.704824315 53.3833626812 358
193.524844844 53.6105259266 356
192.704824315 53.3833626812 354
192.704824315 53.3833626812 352
191.884803786 53.1561994357 350
191.064783257 52.9290361903 348
191.064783257 52.9290361903 346
191.064783257 52.9290361903 344
191.884803786 53.1561994357 342
191.064783257 52.9290361903 340
191.064783257 52.9290361903 338
191.064783257 52.9290361903 336
190.244762728 52.7018729448 334
190.244762728 52.7018729448 332
190.244762728 52.7018729448 330
188.60472167 52.2475464539 328
188.60472167 52.2475464539 326
187.784701141 52.0203832085 324
186.964680612 51.793219963 322
187.784701141 52.0203832085 320
186.964680612 51.793219963 318
186.964680612 51.793219963 316
186.964680612 51.793219963 314
186.964680612 51.793219963 312
186.144660083 51.5660567175 310
185.324639554 51.3388934721 308
185.324639554 51.3388934721 306
184.504619025 51.1117302266 304
184.504619025 51.1117302266 302
184.504619025 51.1117302266 300
184.504619025 51.1117302266 298
184.504619025 51.1117302266 296
183.684598496 50.8845669812 294
183.684598496 50.8845669812 292
183.684598496 50.8845669812 290
183.684598496 50.8845669812 288
182.864577967 50.6574037357 286
182.044557438 50.4302404903 284
-45.101129095 -12.4939784998 282
-46.741170153 -12.9483049908 280
-49.20123174 -13.6297947271 278
-50.841272798 -14.084121218 276
-52.481313856 -14.5384477089 274
-54.941375443 -15.2199374453 272
-57.40143703 -15.9014271816 270
-61.501539675 -17.0372434089 268
-65.6016423199 -18.1730596361 266
-69.7017449649 -19.3088758634 264
-73.8018476099 -20.4446920907 262
-112.342812473 -31.1213646269 260
-111.522791944 -30.8942013814 258
-111.522791944 -30.8942013814 256
-112.342812473 -31.1213646269 254
-111.522791944 -30.8942013814 252
-112.342812473 -31.1213646269 250
-113.162833002 -31.3485278723 248
-111.522791944 -30.8942013814 246
-111.522791944 -30.8942013814 244
-113.162833002 -31.3485278723 242
-113.982853531 -31.5756911178 240
-113.982853531 -31.5756911178 238
-113.162833002 -31.3485278723 236
-113.982853531 -31.5756911178 234
-113.162833002 -31.3485278723 232
-113.162833002 -31.3485278723 230
-112.342812473 -31.1213646269 228
-111.522791944 -30.8942013814 226
-111.522791944 -30.8942013814 224
-110.702771415 -30.667038136 222
-105.782648241 -29.3040586633 220
-117.262935647 -32.4843440996 218
-117.262935647 -32.4843440996 216
-117.262935647 -32.4843440996 214
-117.262935647 -32.4843440996 212
-117.262935647 -32.4843440996 210
-117.262935647 -32.4843440996 208
-117.262935647 -32.4843440996 206
-116.442915118 -32.2571808541 204
-116.442915118 -32.2571808541 202
-117.262935647 -32.4843440996 200
-117.262935647 -32.4843440996 198
-117.262935647 -32.4843440996 196
-117.262935647 -32.4843440996 194
-31.980800631 -8.85936657262 192
-31.980800631 -8.85936657262 190
-32.80082116 -9.08652981807 188
-33.620841689 -9.31369306352 186
-117.262935647 -32.4843440996 184
-117.262935647 -32.4843440996 182
-117.262935647 -32.4843440996 180
-117.262935647 -32.4843440996 178
-117.262935647 -32.4843440996 176
-117.262935647 -32.4843440996 174
-117.262935647 -32.4843440996 172
-118.082956176 -32.7115073451 170
-118.082956176 -32.7115073451 168
-118.082956176 -32.7115073451 166
-118.082956176 -32.7115073451 164
-118.902976705 -32.9386705905 162
-119.722997234 -33.165833836 160
-119.722997234 -33.165833836 158
-120.543017763 -33.3929970814 156
-120.543017763 -33.3929970814 154
217.889860772 64.3418105355 554
218.705927666 64.5827910993 552
217.889860772 64.3418105355 550
218.705927666 64.5827910993 548
217.073793877 64.1008299717 546
217.889860772 64.3418105355 544
216.257726983 63.8598494079 534
215.441660089 63.6188688441 528
214.625593195 63.3778882803 524
214.625593195 63.3778882803 522
214.625593195 63.3778882803 518
213.8095263 63.1369077165 514
212.993459406 62.8959271527 508
212.993459406 62.8959271527 506
212.177392512 62.6549465889 504
212.177392512 62.6549465889 502
212.177392512 62.6549465889 500
211.361325618 62.4139660251 498
211.361325618 62.4139660251 496
211.361325618 62.4139660251 494
211.361325618 62.4139660251 492
210.545258723 62.1729854613 490
209.729191829 61.9320048975 488
209.729191829 61.9320048975 486
209.729191829 61.9320048975 484
209.729191829 61.9320048975 482
208.913124935 61.6910243337 480
208.913124935 61.6910243337 478
208.913124935 61.6910243337 476
208.913124935 61.6910243337 474
208.09705804 61.4500437699 472
208.913124935 61.6910243337 470
208.913124935 61.6910243337 468
208.09705804 61.4500437699 466
208.09705804 61.4500437699 464
207.280991146 61.2090632061 462
205.648857358 60.7271020785 452
204.832790463 60.4861215147 450
204.016723569 60.2451409509 448
204.832790463 60.4861215147 446
204.832790463 60.4861215147 444
204.832790463 60.4861215147 442
204.016723569 60.2451409509 440
204.016723569 60.2451409509 438
204.016723569 60.2451409509 436
203.200656675 60.0041603871 434
202.38458978 59.7631798233 432
203.200656675 60.0041603871 430
203.200656675 60.0041603871 428
202.38458978 59.7631798233 426
201.568522886 59.5221992595 424
201.568522886 59.5221992595 422
202.38458978 59.7631798233 420
200.752455992 59.2812186956 418
200.752455992 59.2812186956 416
200.752455992 59.2812186956 414
199.120322203 58.799257568 410
199.120322203 58.799257568 408
199.120322203 58.799257568 406
197.488188415 58.3172964404 404
199.120322203 58.799257568 402
198.304255309 58.5582770042 400
197.488188415 58.3172964404 398
197.488188415 58.3172964404 396
197.488188415 58.3172964404 394
197.488188415 58.3172964404 392
197.488188415 58.3172964404 390
196.672121521 58.0763158766 388
