0 0 0 
rotate([90,0,0])linear_extrude(height=1, center=false, convexity=14, twist=0) polygon([143.542676581 0.0 632
142.8355698 0.0 626
138.592929113 0.0 602
-412.243253432 -0.0 596
137.885822331 0.0 590
136.471608769 0.0 587
136.471608769 0.0 581
135.057395207 0.0 578
135.057395207 0.0 575
135.057395207 0.0 572
135.057395207 0.0 569
135.057395207 0.0 566
133.643181644 0.0 563
133.643181644 0.0 560
132.936074863 0.0 557
132.936074863 0.0 554
132.228968082 0.0 551
131.521861301 0.0 548
131.521861301 0.0 545
130.81475452 0.0 542
130.107647738 0.0 539
130.107647738 0.0 536
130.107647738 0.0 533
130.107647738 0.0 530
130.107647738 0.0 527
128.693434176 0.0 524
128.693434176 0.0 521
128.693434176 0.0 518
127.279220614 0.0 515
127.279220614 0.0 512
126.572113832 0.0 509
125.865007051 0.0 506
125.865007051 0.0 503
125.15790027 0.0 500
125.15790027 0.0 497
125.15790027 0.0 494
125.15790027 0.0 491
125.15790027 0.0 488
123.743686708 0.0 485
123.743686708 0.0 482
123.743686708 0.0 479
123.036579926 0.0 476
122.329473145 0.0 473
122.329473145 0.0 470
120.915259583 0.0 467
120.915259583 0.0 464
120.915259583 0.0 461
120.208152802 0.0 458
119.501046021 0.0 455
119.501046021 0.0 452
119.501046021 0.0 449
119.501046021 0.0 446
119.501046021 0.0 443
118.793939239 0.0 440
118.086832458 0.0 437
118.086832458 0.0 434
116.672618896 0.0 431
116.672618896 0.0 428
116.672618896 0.0 425
115.965512115 0.0 422
115.258405333 0.0 419
115.258405333 0.0 416
114.551298552 0.0 413
113.844191771 0.0 410
113.844191771 0.0 407
113.844191771 0.0 404
113.844191771 0.0 401
113.13708499 0.0 398
113.13708499 0.0 395
112.429978209 0.0 392
111.722871427 0.0 389
111.722871427 0.0 386
111.015764646 0.0 383
111.015764646 0.0 380
110.308657865 0.0 377
109.601551084 0.0 374
108.894444303 0.0 371
108.894444303 0.0 368
108.187337522 0.0 365
108.187337522 0.0 362
108.187337522 0.0 359
107.48023074 0.0 356
107.48023074 0.0 353
107.48023074 0.0 350
106.066017178 0.0 347
106.066017178 0.0 344
106.066017178 0.0 341
104.651803616 0.0 338
104.651803616 0.0 335
103.944696834 0.0 332
103.237590053 0.0 329
103.237590053 0.0 326
102.530483272 0.0 323
101.823376491 0.0 320
101.823376491 0.0 317
101.823376491 0.0 314
101.823376491 0.0 311
101.11626971 0.0 308
-31.1126983722 -0.0 305
-35.3553390593 -0.0 302
-38.8908729653 -0.0 299
-41.0121933088 -0.0 296
109.601551084 0.0 293
111.015764646 0.0 290
117.379725677 0.0 287
123.036579926 0.0 284
127.986327395 0.0 281
142.128463018 0.0 278
135.057395207 0.0 275
137.17871555 0.0 272
140.007142675 0.0 269
133.643181644 0.0 266
-87.6812408671 -0.0 263
-91.2167747731 -0.0 260
-95.4594154602 -0.0 257
-95.4594154602 -0.0 254
-98.9949493661 -0.0 251
-101.823376491 -0.0 248
-101.823376491 -0.0 245
-105.358910397 -0.0 242
-104.651803616 -0.0 239
-106.066017178 -0.0 236
-111.015764646 -0.0 233
-114.551298552 -0.0 230
-118.086832458 -0.0 227
-119.501046021 -0.0 224
-120.915259583 -0.0 221
-108.894444303 -0.0 218
-108.187337522 -0.0 215
-107.48023074 -0.0 212
-108.187337522 -0.0 209
-108.894444303 -0.0 206
-108.894444303 -0.0 203
-108.894444303 -0.0 200
-108.894444303 -0.0 197
-108.894444303 -0.0 194
-109.601551084 -0.0 191
-108.894444303 -0.0 188
-109.601551084 -0.0 185
-108.894444303 -0.0 182
-108.894444303 -0.0 179
-110.308657865 -0.0 176
-109.601551084 -0.0 173
-109.601551084 -0.0 170
-109.601551084 -0.0 167
-110.308657865 -0.0 164
-111.015764646 -0.0 161
-111.015764646 -0.0 158
-111.015764646 -0.0 155
-96.8736290226 -0.0 149
-96.8736290226 -0.0 146
-48.0832611207 -0.0 137
-53.7401153702 -0.0 134
-49.4974746831 -0.0 131
-19.091883092 -0.0 128
-123.743686708 -0.0 125
-127.986327395 -0.0 122
-129.400540957 -0.0 119
-129.400540957 -0.0 116
-129.400540957 -0.0 113
-130.107647738 -0.0 110
-133.643181644 -0.0 107
-136.471608769 -0.0 104
-137.885822331 -0.0 101
-138.592929113 -0.0 98
-139.300035894 -0.0 95
-140.007142675 -0.0 92
-140.007142675 -0.0 89
-140.007142675 -0.0 86
-56.5685424949 -0.0 41
-42.4264068712 -0.0 38
-51.6187950266 -0.0 35
-51.6187950266 -0.0 32
-34.6482322781 -0.0 29
-54.4472221514 -0.0 26
63.6396103068 0.0 20
62.2253967444 0.0 17
62.2253967444 0.0 14
-43.8406204336 -0.0 11
]);  
 
rotate([90,0,0.967741935484])linear_extrude(height=1, center=false, convexity=14, twist=0) polygon([142.108190178 2.40047583556 626
140.694178336 2.37659050386 623
138.573160572 2.34076250632 596
138.573160572 2.34076250632 593
137.866154651 2.32881984047 590
137.159148729 2.31687717462 587
136.452142808 2.30493450877 584
136.452142808 2.30493450877 581
135.745136887 2.29299184292 578
-436.222653433 -7.36862482856 575
135.038130965 2.28104917708 572
135.038130965 2.28104917708 569
135.038130965 2.28104917708 566
134.331125044 2.26910651123 563
133.624119123 2.25716384538 560
132.917113202 2.24522117953 557
132.21010728 2.23327851368 554
131.503101359 2.22133584783 551
131.503101359 2.22133584783 548
130.796095438 2.20939318198 545
130.796095438 2.20939318198 542
130.089089516 2.19745051614 539
130.089089516 2.19745051614 536
130.089089516 2.19745051614 533
130.089089516 2.19745051614 530
129.382083595 2.18550785029 527
129.382083595 2.18550785029 524
128.675077674 2.17356518444 521
127.968071753 2.16162251859 518
127.261065831 2.14967985274 515
127.261065831 2.14967985274 512
125.847053989 2.12579452104 509
125.847053989 2.12579452104 506
125.847053989 2.12579452104 503
125.140048067 2.1138518552 500
125.140048067 2.1138518552 497
125.140048067 2.1138518552 494
125.140048067 2.1138518552 491
124.433042146 2.10190918935 488
124.433042146 2.10190918935 485
123.726036225 2.0899665235 482
123.726036225 2.0899665235 479
123.019030304 2.07802385765 476
122.312024382 2.0660811918 473
122.312024382 2.0660811918 470
122.312024382 2.0660811918 467
120.89801254 2.0421958601 464
120.89801254 2.0421958601 461
119.484000697 2.01831052841 458
119.484000697 2.01831052841 455
119.484000697 2.01831052841 452
119.484000697 2.01831052841 449
119.484000697 2.01831052841 446
119.484000697 2.01831052841 443
118.776994776 2.00636786256 440
118.069988855 1.99442519671 437
118.069988855 1.99442519671 434
117.362982933 1.98248253086 431
117.362982933 1.98248253086 428
115.948971091 1.95859719916 425
115.948971091 1.95859719916 422
115.241965169 1.94665453332 419
115.241965169 1.94665453332 416
114.534959248 1.93471186747 413
113.827953327 1.92276920162 410
113.827953327 1.92276920162 407
113.827953327 1.92276920162 404
113.827953327 1.92276920162 401
113.120947406 1.91082653577 398
113.120947406 1.91082653577 395
113.120947406 1.91082653577 392
111.706935563 1.88694120407 389
111.706935563 1.88694120407 386
110.999929642 1.87499853822 383
110.999929642 1.87499853822 380
110.292923721 1.86305587238 377
109.585917799 1.85111320653 374
109.585917799 1.85111320653 371
108.878911878 1.83917054068 368
108.171905957 1.82722787483 365
108.171905957 1.82722787483 362
108.171905957 1.82722787483 359
107.464900035 1.81528520898 356
107.464900035 1.81528520898 353
107.464900035 1.81528520898 350
106.050888193 1.79139987728 347
106.050888193 1.79139987728 344
105.343882272 1.77945721144 341
105.343882272 1.77945721144 338
104.63687635 1.76751454559 335
103.222864508 1.74362921389 332
103.222864508 1.74362921389 329
103.222864508 1.74362921389 326
102.515858586 1.73168654804 323
102.515858586 1.73168654804 320
101.808852665 1.71974388219 317
101.808852665 1.71974388219 314
101.808852665 1.71974388219 311
101.101846744 1.70780121634 308
-31.1082605366 -0.525477297337 305
-35.3502960643 -0.597133292428 302
-38.8853256707 -0.656846621671 299
-41.7133493558 -0.704617285065 296
108.171905957 1.82722787483 293
120.89801254 2.0421958601 290
118.069988855 1.99442519671 287
123.726036225 2.0899665235 284
128.675077674 2.17356518444 281
132.917113202 2.24522117953 278
136.452142808 2.30493450877 275
138.573160572 2.34076250632 272
141.401184257 2.38853316971 269
134.331125044 2.26910651123 266
139.280166493 2.35270517217 263
142.8151961 2.41241850141 260
-93.3247816097 -1.57643189201 257
-96.1528052948 -1.6242025554 254
-98.9808289799 -1.6719732188 251
-100.394840823 -1.6958585505 248
-103.222864508 -1.74362921389 245
-106.757894114 -1.80334254313 242
-106.050888193 -1.79139987728 239
-109.585917799 -1.85111320653 236
-110.292923721 -1.86305587238 233
-113.120947406 -1.91082653577 230
-118.069988855 -1.99442519671 227
-121.605018461 -2.05413852595 224
-121.605018461 -2.05413852595 221
-116.655977012 -1.97053986501 218
-108.878911878 -1.83917054068 215
-109.585917799 -1.85111320653 212
-109.585917799 -1.85111320653 209
-108.878911878 -1.83917054068 206
-110.292923721 -1.86305587238 203
-110.292923721 -1.86305587238 200
-110.292923721 -1.86305587238 197
-111.706935563 -1.88694120407 194
-109.585917799 -1.85111320653 191
-110.292923721 -1.86305587238 188
-109.585917799 -1.85111320653 185
-110.292923721 -1.86305587238 182
-109.585917799 -1.85111320653 179
-111.706935563 -1.88694120407 176
-98.9808289799 -1.6719732188 173
-110.999929642 -1.87499853822 170
-111.706935563 -1.88694120407 167
-110.292923721 -1.86305587238 164
-110.999929642 -1.87499853822 161
-111.706935563 -1.88694120407 158
-111.706935563 -1.88694120407 155
-96.8598112161 -1.63614522125 149
-96.1528052948 -1.6242025554 146
-48.7834085687 -0.824043943551 137
-53.7324500177 -0.907642604491 134
-45.9553848835 -0.776273280157 131
-19.0891598747 -0.322451977911 128
-123.726036225 -2.0899665235 125
-127.968071753 -2.16162251859 122
-129.382083595 -2.18550785029 119
-129.382083595 -2.18550785029 116
-129.382083595 -2.18550785029 113
-130.796095438 -2.20939318198 110
-132.917113202 -2.24522117953 107
-135.745136887 -2.29299184292 104
-137.159148729 -2.31687717462 101
-137.866154651 -2.32881984047 98
-139.280166493 -2.35270517217 95
-138.573160572 -2.34076250632 92
-139.280166493 -2.35270517217 89
-139.987172414 -2.36464783802 86
-132.917113202 -2.24522117953 68
-127.968071753 -2.16162251859 62
-57.2674796241 -0.967355933734 41
-55.1464618603 -0.931527936188 38
-52.3184381751 -0.883757272794 35
-51.6114322538 -0.871814606945 32
-51.6114322538 -0.871814606945 29
-55.1464618603 -0.931527936188 26
62.9235269944 1.06289726052 20
62.2165210731 1.05095459467 17
62.2165210731 1.05095459467 14
-43.8343671197 -0.740445282611 11
]);  
 
rotate([90,0,1.93548387097])linear_extrude(height=1, center=false, convexity=14, twist=0) polygon([142.047377441 4.80026687567 626
139.92726733 4.7286211014 614
138.513860589 4.68085725189 599
-412.008064917 -13.9231621319 596
-412.714768287 -13.9470440567 593
137.807157219 4.65697532714 590
137.807157219 4.65697532714 587
136.393750478 4.60921147763 584
135.687047108 4.58532955287 581
-436.035979509 -14.7351475736 578
135.687047108 4.58532955287 575
134.273640367 4.53756570337 572
134.980343738 4.56144762812 569
134.273640367 4.53756570337 566
133.566936997 4.51368377861 563
133.566936997 4.51368377861 560
132.860233627 4.48980185386 557
132.860233627 4.48980185386 554
131.446826886 4.44203800435 551
131.446826886 4.44203800435 548
131.446826886 4.44203800435 545
130.740123516 4.41815607959 542
130.033420145 4.39427415484 539
130.033420145 4.39427415484 536
130.033420145 4.39427415484 533
130.033420145 4.39427415484 530
129.326716775 4.37039223008 527
128.620013404 4.34651030533 524
128.620013404 4.34651030533 521
127.913310034 4.32262838057 518
127.206606664 4.29874645582 515
127.206606664 4.29874645582 512
125.793199923 4.25098260631 509
125.793199923 4.25098260631 506
125.793199923 4.25098260631 503
125.086496553 4.22710068156 500
125.086496553 4.22710068156 497
125.086496553 4.22710068156 494
125.086496553 4.22710068156 491
125.086496553 4.22710068156 488
123.673089812 4.17933683205 485
123.673089812 4.17933683205 482
123.673089812 4.17933683205 479
122.966386442 4.15545490729 476
122.259683071 4.13157298254 473
122.259683071 4.13157298254 470
122.259683071 4.13157298254 467
120.846276331 4.08380913303 464
120.846276331 4.08380913303 461
120.13957296 4.05992720827 458
119.43286959 4.03604528352 455
119.43286959 4.03604528352 452
119.43286959 4.03604528352 449
119.43286959 4.03604528352 446
119.43286959 4.03604528352 443
118.72616622 4.01216335877 440
118.019462849 3.98828143401 437
118.019462849 3.98828143401 434
116.606056108 3.9405175845 431
117.312759479 3.96439950926 428
115.899352738 3.91663565975 425
116.606056108 3.9405175845 422
115.899352738 3.91663565975 419
115.192649368 3.89275373499 416
114.485945997 3.86887181024 413
113.779242627 3.84498988548 410
113.779242627 3.84498988548 407
113.779242627 3.84498988548 404
113.779242627 3.84498988548 401
113.072539257 3.82110796073 398
113.072539257 3.82110796073 395
112.365835886 3.79722603597 392
111.659132516 3.77334411122 389
111.659132516 3.77334411122 386
111.659132516 3.77334411122 383
110.952429146 3.74946218647 380
110.245725775 3.72558026171 377
109.539022405 3.70169833696 374
108.832319035 3.6778164122 371
108.832319035 3.6778164122 368
108.832319035 3.6778164122 365
108.125615664 3.65393448745 362
108.125615664 3.65393448745 359
107.418912294 3.63005256269 356
107.418912294 3.63005256269 353
107.418912294 3.63005256269 350
106.005505553 3.58228871318 347
106.005505553 3.58228871318 344
106.005505553 3.58228871318 341
105.298802183 3.55840678843 338
104.592098812 3.53452486367 335
103.178692072 3.48676101417 332
103.178692072 3.48676101417 329
103.178692072 3.48676101417 326
102.471988701 3.46287908941 323
102.471988701 3.46287908941 320
101.765285331 3.43899716466 317
101.765285331 3.43899716466 314
101.058581961 3.4151152399 311
100.35187859 3.39123331515 308
-31.0949482956 -1.0508046892 305
-35.3351685177 -1.19409623773 302
-38.8686853695 -1.3135058615 299
-40.9887954805 -1.38515163576 296
113.779242627 3.84498988548 293
112.365835886 3.79722603597 290
118.72616622 4.01216335877 287
123.673089812 4.17933683205 284
129.326716775 4.37039223008 281
133.566936997 4.51368377861 278
136.393750478 4.60921147763 275
139.22056396 4.70473917665 272
142.047377441 4.80026687567 269
136.393750478 4.60921147763 266
139.92726733 4.7286211014 263
-88.3379212943 -2.98524059432 260
-95.4049549978 -3.22405984187 257
-96.1116583682 -3.24794176662 254
-98.2317684792 -3.31958754088 251
-103.178692072 -3.48676101417 248
-103.178692072 -3.48676101417 245
-105.298802183 -3.55840678843 242
-108.125615664 -3.65393448745 239
-106.712208923 -3.60617063794 236
-109.539022405 -3.70169833696 233
-114.485945997 -3.86887181024 230
-117.312759479 -3.96439950926 227
-121.552979701 -4.10769105778 224
-124.379793182 -4.2032187568 221
-123.673089812 -4.17933683205 218
-109.539022405 -3.70169833696 215
-110.245725775 -3.72558026171 212
-109.539022405 -3.70169833696 209
-110.245725775 -3.72558026171 206
-110.245725775 -3.72558026171 203
-110.952429146 -3.74946218647 200
-110.952429146 -3.74946218647 197
-110.245725775 -3.72558026171 194
-110.952429146 -3.74946218647 191
-110.952429146 -3.74946218647 188
-110.245725775 -3.72558026171 185
-110.952429146 -3.74946218647 182
-111.659132516 -3.77334411122 179
-110.245725775 -3.72558026171 176
-112.365835886 -3.79722603597 173
-111.659132516 -3.77334411122 170
-111.659132516 -3.77334411122 167
-110.245725775 -3.72558026171 164
-111.659132516 -3.77334411122 161
-112.365835886 -3.79722603597 158
-112.365835886 -3.79722603597 155
-96.8183617385 -3.27182369137 149
-96.8183617385 -3.27182369137 146
-45.935719073 -1.55232510905 137
-53.7094561469 -1.81502628135 134
-21.2011011106 -0.716457742637 131
-17.6675842589 -0.597048118864 128
-123.673089812 -4.17933683205 125
-127.913310034 -4.32262838057 122
-129.326716775 -4.37039223008 119
-129.326716775 -4.37039223008 116
-129.326716775 -4.37039223008 113
-130.033420145 -4.39427415484 110
-132.860233627 -4.48980185386 107
-136.393750478 -4.60921147763 104
-137.100453849 -4.63309340238 101
-137.807157219 -4.65697532714 98
-139.22056396 -4.70473917665 95
-139.22056396 -4.70473917665 92
-139.22056396 -4.70473917665 89
-139.92726733 -4.7286211014 86
-133.566936997 -4.51368377861 80
-132.860233627 -4.48980185386 77
-132.860233627 -4.48980185386 74
-132.860233627 -4.48980185386 71
-132.153530256 -4.4659199291 68
-130.740123516 -4.41815607959 65
-127.913310034 -4.32262838057 62
-125.086496553 -4.22710068156 59
-57.949676369 -1.95831782987 41
-55.829566258 -1.88667205561 38
-52.2960494062 -1.76726243184 35
-52.2960494062 -1.76726243184 32
-52.2960494062 -1.76726243184 29
-53.7094561469 -1.81502628135 26
62.8965999615 2.12549130316 20
62.1898965912 2.1016093784 17
62.1898965912 2.1016093784 14
-43.815608962 -1.48067933478 11
]);  
 
