-2.44425420145e-13 192.304196545 309
-2.4226236333e-13 190.602389496 306
-2.43343891737e-13 191.45329302 303
-2.41180834922e-13 189.751485971 300
-2.43343891737e-13 191.45329302 297
-2.41180834922e-13 189.751485971 294
6.16471192401e-14 -48.5015008984 288
6.92178180942e-14 -54.4578255702 285
7.67885169482e-14 -60.4141502419 282
1.42761749819e-13 -112.319265239 279
1.43843278227e-13 -113.170168763 276
1.44924806635e-13 -114.021072288 273
1.44924806635e-13 -114.021072288 270
1.46006335042e-13 -114.871975812 267
1.46006335042e-13 -114.871975812 264
1.46006335042e-13 -114.871975812 261
1.48169391858e-13 -116.573782861 258
1.48169391858e-13 -116.573782861 255
1.4708786345e-13 -115.722879337 252
1.49250920266e-13 -117.424686386 249
1.44924806635e-13 -114.021072288 246
1.43843278227e-13 -113.170168763 243
1.43843278227e-13 -113.170168763 240
1.50332448673e-13 -118.27558991 237
7.67885169482e-14 -60.4141502419 234
7.57069885405e-14 -59.5632467174 231
7.57069885405e-14 -59.5632467174 228
1.51413977081e-13 -119.126493435 225
1.51413977081e-13 -119.126493435 222
1.51413977081e-13 -119.126493435 219
1.51413977081e-13 -119.126493435 216
1.51413977081e-13 -119.126493435 213
1.51413977081e-13 -119.126493435 210
1.51413977081e-13 -119.126493435 207
1.51413977081e-13 -119.126493435 204
1.52495505489e-13 -119.977396959 201
1.53577033896e-13 -120.828300484 198
1.53577033896e-13 -120.828300484 195
1.54658562304e-13 -121.679204008 192
1.55740090712e-13 -122.530107533 189
1.55740090712e-13 -122.530107533 186
1.54658562304e-13 -121.679204008 183
1.54658562304e-13 -121.679204008 180
1.54658562304e-13 -121.679204008 177
1.55740090712e-13 -122.530107533 174
1.57903147527e-13 -124.231914582 171
1.58984675935e-13 -125.082818107 168
1.58984675935e-13 -125.082818107 165
1.60066204343e-13 -125.933721631 162
1.60066204343e-13 -125.933721631 159
1.61147732751e-13 -126.784625156 156
1.62229261158e-13 -127.63552868 153
1.61147732751e-13 -126.784625156 150
1.62229261158e-13 -127.63552868 147
1.61147732751e-13 -126.784625156 144
1.50332448673e-13 -118.27558991 141
1.51413977081e-13 -119.126493435 138
6.70547612788e-14 -52.7560185211 135
6.70547612788e-14 -52.7560185211 132
6.27286476479e-14 -49.352404423 129
6.81362896865e-14 -53.6069220456 126
1.91430528167e-13 -150.609923843 123
1.97919698613e-13 -155.71534499 120
2.00082755429e-13 -157.417152039 117
2.00082755429e-13 -157.417152039 114
1.99001227021e-13 -156.566248514 111
2.00082755429e-13 -157.417152039 108
2.04408869059e-13 -160.820766137 105
2.09816511098e-13 -165.07528376 102
2.10898039506e-13 -165.926187284 99
2.14142624729e-13 -168.478897858 96
2.15224153137e-13 -169.329801382 93
2.15224153137e-13 -169.329801382 90
2.15224153137e-13 -169.329801382 87
2.15224153137e-13 -169.329801382 84
2.05490397467e-13 -161.671669661 81
2.05490397467e-13 -161.671669661 78
2.05490397467e-13 -161.671669661 75
2.05490397467e-13 -161.671669661 72
2.04408869059e-13 -160.820766137 69
2.04408869059e-13 -160.820766137 66
2.04408869059e-13 -160.820766137 63
2.00082755429e-13 -157.417152039 60
1.96838170205e-13 -154.864441465 57
1.92512056574e-13 -151.460827367 54
6.81362896865e-14 -53.6069220456 45
6.92178180942e-14 -54.4578255702 42
7.24624033174e-14 -57.0105361438 39
7.24624033174e-14 -57.0105361438 36
7.35439317251e-14 -57.8614396683 33
7.13808749096e-14 -56.1596326193 30
6.70547612788e-14 -52.7560185211 27
5.51579487938e-14 -43.3960797512 15
6.48917044633e-14 -51.054211472 12
6.48917044633e-14 -51.054211472 9
7.02993465019e-14 -55.3087290947 6
6.92178180942e-14 -54.4578255702 3
-3.80839928892 225.457270766 543
-3.72217138049 220.352577843 504
-3.72217138049 220.352577843 498
-3.70780006242 219.501795689 495
-3.70780006242 219.501795689 492
-3.67905742628 217.800231381 483
-3.66468610821 216.949449228 480
-3.67905742628 217.800231381 477
-3.65031479014 216.098667074 474
-3.63594347207 215.24788492 462
-3.62157215399 214.397102766 456
-3.60720083592 213.546320612 453
-3.59282951785 212.695538458 441
-3.57845819978 211.844756305 435
-3.53534424557 209.292409843 423
-3.53534424557 209.292409843 420
-3.47785897328 205.889281228 399
-3.47785897328 205.889281228 396
-3.47785897328 205.889281228 393
-3.44911633714 204.18771692 390
-3.43474501907 203.336934766 381
-3.43474501907 203.336934766 378
-3.43474501907 203.336934766 375
-3.43474501907 203.336934766 372
-3.43474501907 203.336934766 369
-3.40600238292 201.635370459 366
-3.37725974678 199.933806151 363
-3.37725974678 199.933806151 360
-3.36288842871 199.083023997 357
-3.36288842871 199.083023997 354
-3.34851711064 198.232241843 351
-3.33414579257 197.381459689 348
-3.34851711064 198.232241843 345
-3.33414579257 197.381459689 342
-3.31977447449 196.530677536 339
-3.31977447449 196.530677536 336
-3.31977447449 196.530677536 333
-3.30540315642 195.679895382 330
-3.29103183835 194.829113228 327
-3.30540315642 195.679895382 324
-3.26228920221 193.12754892 321
-3.26228920221 193.12754892 318
-3.24791788414 192.276766766 315
-3.24791788414 192.276766766 312
-3.24791788414 192.276766766 309
-3.23354656607 191.425984613 306
-3.23354656607 191.425984613 303
-3.21917524799 190.575202459 300
-3.23354656607 191.425984613 297
-3.19043261185 188.873638151 294
0.91976435657 -54.4500578453 285
1.06347753728 -62.9578793837 282
1.9113853035 -113.15402646 279
1.9113853035 -113.15402646 276
1.9113853035 -113.15402646 273
1.92575662157 -114.004808614 270
1.95449925771 -115.706372921 267
1.95449925771 -115.706372921 264
1.94012793964 -114.855590768 261
1.94012793964 -114.855590768 258
1.95449925771 -115.706372921 255
1.95449925771 -115.706372921 252
1.95449925771 -115.706372921 249
1.92575662157 -114.004808614 246
1.9113853035 -113.15402646 243
1.9113853035 -113.15402646 240
1.99761321193 -118.258719383 237
1.02036358307 -60.4055329222 234
1.02036358307 -60.4055329222 231
1.02036358307 -60.4055329222 228
2.01198453 -119.109501537 225
2.01198453 -119.109501537 222
2.01198453 -119.109501537 219
2.01198453 -119.109501537 216
2.01198453 -119.109501537 213
2.01198453 -119.109501537 210
2.01198453 -119.109501537 207
2.01198453 -119.109501537 204
2.04072716614 -120.811065844 201
2.04072716614 -120.811065844 198
2.05509848421 -121.661847998 195
-1.09222017343 64.6594436913 192
2.05509848421 -121.661847998 189
2.08384112035 -123.363412306 186
2.06946980228 -122.512630152 183
2.08384112035 -123.363412306 180
2.06946980228 -122.512630152 177
2.09821243842 -124.21419446 174
2.1125837565 -125.064976614 171
2.14132639264 -126.766540921 168
2.14132639264 -126.766540921 165
2.12695507457 -125.915758767 162
2.12695507457 -125.915758767 159
2.14132639264 -126.766540921 156
2.15569771071 -127.617323075 153
2.17006902878 -128.468105229 150
2.15569771071 -127.617323075 147
2.15569771071 -127.617323075 144
1.98324189385 -117.407937229 141
1.99761321193 -118.258719383 138
0.891021720427 -52.7484935377 135
0.891021720427 -52.7484935377 132
0.833536448141 -49.3453649223 129
0.905393038498 -53.5992756915 126
2.54372329864 -150.588441229 123
2.62995120707 -155.693134152 120
2.64432252514 -156.543916305 117
2.65869384321 -157.394698459 114
2.64432252514 -156.543916305 111
2.65869384321 -157.394698459 108
2.7161791155 -160.797827075 105
2.77366438778 -164.20095569 102
2.816778342 -166.753302151 99
2.83114966007 -167.604084305 96
2.85989229621 -169.305648613 93
2.85989229621 -169.305648613 90
2.85989229621 -169.305648613 87
2.85989229621 -169.305648613 84
2.73055043357 -161.648609228 78
2.73055043357 -161.648609228 75
2.73055043357 -161.648609228 72
2.73055043357 -161.648609228 69
2.7161791155 -160.797827075 66
2.7161791155 -160.797827075 63
2.65869384321 -157.394698459 60
2.60120857092 -153.991569844 57
2.54372329864 -150.588441229 54
0.905393038498 -53.5992756915 42
0.977249628855 -57.8531864607 39
0.962878310784 -57.0024043068 36
0.962878310784 -57.0024043068 33
0.948506992713 -56.151622153 30
0.61796667707 -36.5836326148 27
0.71856590357 -42.5391076917 15
0.847907766213 -50.1961470762 12
0.876650402356 -51.8977113838 9
0.934135674641 -55.3008399992 6
0.91976435657 -54.4500578453 3
-7.58697360082 224.510372158 534
-7.61571213719 225.360790234 528
-7.55823506446 223.659954081 525
-7.41454238262 219.4078637 504
-7.41454238262 219.4078637 498
-7.38580384626 218.557445623 492
-7.32832677352 216.856609471 480
-7.35706530989 217.707027547 477
-7.24211116442 214.305355242 462
-7.24211116442 214.305355242 459
-7.21337262806 213.454937165 453
-7.21337262806 213.454937165 450
-7.29958823716 216.006191394 447
-7.15589555532 211.754101013 441
-7.15589555532 211.754101013 435
-7.06967994622 209.202846783 423
-7.04094140986 208.352428707 420
-7.04094140986 208.352428707 417
-7.01220287349 207.502010631 405
-6.95472580076 205.801174478 399
-6.92598726439 204.950756402 393
-6.89724872802 204.100338325 390
-6.83977165529 202.399502173 381
-6.83977165529 202.399502173 378
-6.83977165529 202.399502173 375
-6.86851019166 203.249920249 372
-6.81103311892 201.549084096 369
-6.78229458256 200.69866602 366
-6.75355604619 199.848247944 363
-6.75355604619 199.848247944 360
-6.78229458256 200.69866602 357
-6.69607897345 198.147411791 354
-6.69607897345 198.147411791 351
-6.66734043709 197.296993714 348
-6.69607897345 198.147411791 345
-6.63860190072 196.446575638 342
-6.60986336435 195.596157562 339
-6.63860190072 196.446575638 336
-6.63860190072 196.446575638 333
-6.60986336435 195.596157562 330
-6.60986336435 195.596157562 327
-6.60986336435 195.596157562 324
-6.55238629162 193.895321409 321
-6.52364775525 193.044903333 318
-6.49490921889 192.194485256 315
-6.52364775525 193.044903333 312
-6.40869360979 189.643231027 306
-6.46617068252 191.34406718 303
-6.43743214615 190.493649104 300
-6.43743214615 190.493649104 297
-6.40869360979 189.643231027 294
1.66683510927 -49.3242484286 288
1.86800486384 -55.2771749631 285
2.06917461841 -61.2301014976 282
3.87970240951 -114.806440308 279
3.85096387315 -113.956022232 276
3.87970240951 -114.806440308 273
3.87970240951 -114.806440308 270
3.87970240951 -114.806440308 267
3.93717948225 -116.507276461 264
3.90844094588 -115.656858384 261
3.96591801861 -117.357694537 258
3.93717948225 -116.507276461 255
3.90844094588 -115.656858384 252
3.99465655498 -118.208112613 249
3.82222533678 -113.105604155 246
3.82222533678 -113.105604155 243
3.82222533678 -113.105604155 240
2.15539022751 -63.7813557267 237
2.15539022751 -63.7813557267 234
2.12665169114 -62.9309376503 231
2.18412876387 -64.631773803 228
4.05213362771 -119.908948766 225
4.02339509135 -119.05853069 222
4.02339509135 -119.05853069 219
4.02339509135 -119.05853069 216
4.05213362771 -119.908948766 213
4.05213362771 -119.908948766 210
4.05213362771 -119.908948766 207
4.05213362771 -119.908948766 204
4.10961070045 -121.609784919 201
4.10961070045 -121.609784919 198
4.13834923681 -122.460202995 195
4.19582630955 -124.161039148 192
4.22456484591 -125.011457224 189
4.16708777318 -123.310621072 186
4.16708777318 -123.310621072 183
4.16708777318 -123.310621072 180
4.13834923681 -122.460202995 177
4.22456484591 -125.011457224 174
4.22456484591 -125.011457224 171
4.31078045501 -127.562711453 168
4.33951899138 -128.41312953 165
4.28204191865 -126.712293377 162
4.28204191865 -126.712293377 159
3.18997753671 -94.3964064755 156
4.31078045501 -127.562711453 153
4.33951899138 -128.41312953 150
4.33951899138 -128.41312953 147
4.33951899138 -128.41312953 144
4.02339509135 -119.05853069 141
4.05213362771 -119.908948766 138
1.78178925474 -52.725920734 135
1.81052779111 -53.5763388104 132
1.69557364564 -50.174666505 129
1.81052779111 -53.5763388104 126
5.08672093692 -150.523999515 123
5.25915215512 -155.626507973 120
5.28789069148 -156.476926049 117
5.31662922785 -157.327344126 114
5.28789069148 -156.476926049 111
5.31662922785 -157.327344126 108
5.43158337332 -160.729016431 105
5.57527605515 -164.981106813 102
5.63275312788 -166.681942966 99
5.69023020062 -168.382779118 96
5.71896873699 -169.233197195 93
5.71896873699 -169.233197195 90
5.71896873699 -169.233197195 87
5.74770727335 -170.083615271 84
5.74770727335 -170.083615271 81
5.46032190968 -161.579434508 78
5.46032190968 -161.579434508 75
5.46032190968 -161.579434508 72
5.46032190968 -161.579434508 69
5.43158337332 -160.729016431 66
5.40284483695 -159.878598355 63
5.34536776422 -158.177762202 60
5.25915215512 -155.626507973 57
5.14419800965 -152.224835668 54
1.89674340021 -56.1275930395 42
1.98295900931 -58.6788472685 39
1.95422047294 -57.8284291922 36
1.98295900931 -58.6788472685 33
2.01169754567 -59.5292653449 30
1.98295900931 -58.6788472685 27
1.43692681834 -42.5209038178 15
1.72431218201 -51.0250845813 12
1.72431218201 -51.0250845813 9
1.86800486384 -55.2771749631 6
1.89674340021 -56.1275930395 3
-11.4208524141 225.20001993 534
-11.3777548578 224.350208534 528
-11.2915597453 222.650585742 525
-11.1622670764 220.101151554 504
-11.1191695201 219.251340158 492
-10.9898768513 216.70190597 480
-11.0329744076 217.551717366 477
-10.946779295 215.852094574 474
-10.9036817387 215.002283178 462
-10.8174866262 213.302660387 453
-10.946779295 215.852094574 447
-10.7312915136 211.603037595 441
-10.6881939573 210.753226199 435
-10.6019988448 209.053603407 420
-10.6019988448 209.053603407 417
-10.5158037322 207.353980615 408
-10.4296086197 205.654357823 399
-10.4296086197 205.654357823 396
-10.3865110634 204.804546427 393
-10.3434135071 203.954735031 390
-10.4296086197 205.654357823 387
-10.3003159508 203.104923635 381
-10.3003159508 203.104923635 378
-10.2141208383 201.405300843 375
-10.3003159508 203.104923635 372
-10.2141208383 201.405300843 369
-10.171023282 200.555489447 366
-10.1279257257 199.705678051 363
-10.1279257257 199.705678051 360
-10.1279257257 199.705678051 357
-10.0417306131 198.006055259 354
-10.0417306131 198.006055259 351
-9.95553550058 196.306432467 348
-10.0417306131 198.006055259 345
-9.99863305686 197.156243863 342
-9.9124379443 195.456621071 339
-9.95553550058 196.306432467 336
-9.95553550058 196.306432467 333
-9.9124379443 195.456621071 330
-9.9124379443 195.456621071 327
-9.86934038803 194.606809675 324
-9.82624283175 193.756998279 321
-9.78314527547 192.907186883 318
-9.74004771919 192.057375487 315
-9.78314527547 192.907186883 312
-9.65385260663 190.357752696 306
-9.69695016291 191.207564092 303
-9.61075505035 189.5079413 300
-9.65385260663 190.357752696 297
-9.61075505035 189.5079413 294
2.49965826422 -49.2890609658 288
2.80134115817 -55.2377407375 285
3.40470694609 -67.135100281 282
5.81817009774 -114.724538455 279
5.73197498518 -113.024915663 276
5.81817009774 -114.724538455 273
5.81817009774 -114.724538455 270
5.86126765402 -115.574349851 267
5.77507254146 -113.874727059 264
5.9043652103 -116.424161247 261
5.9043652103 -116.424161247 258
5.86126765402 -115.574349851 255
5.81817009774 -114.724538455 252
5.94746276658 -117.273972643 249
5.81817009774 -114.724538455 246
5.73197498518 -113.024915663 243
3.36160938981 -66.2852888851 240
3.27541427725 -64.5856660931 237
3.27541427725 -64.5856660931 234
3.31851183353 -65.4354774891 231
5.99056032286 -118.123784039 228
6.03365787914 -118.973595435 225
5.99056032286 -118.123784039 222
6.03365787914 -118.973595435 219
6.03365787914 -118.973595435 216
6.07675543542 -119.823406831 213
6.07675543542 -119.823406831 210
6.1198529917 -120.673218227 207
6.1198529917 -120.673218227 204
6.16295054798 -121.523029623 201
6.20604810426 -122.372841019 198
6.29224321682 -124.07246381 195
6.3353407731 -124.922275206 192
6.29224321682 -124.07246381 189
6.29224321682 -124.07246381 186
6.20604810426 -122.372841019 183
6.20604810426 -122.372841019 180
4.99931652843 -98.5781219316 177
6.29224321682 -124.07246381 174
6.3353407731 -124.922275206 171
6.46463344194 -127.471709394 168
6.46463344194 -127.471709394 165
6.37843832938 -125.772086602 162
5.43029209123 -107.076235891 159
4.82692630331 -95.1788763478 156
6.50773099822 -128.32152079 153
6.46463344194 -127.471709394 150
6.50773099822 -128.32152079 147
6.50773099822 -128.32152079 144
6.03365787914 -118.973595435 141
6.07675543542 -119.823406831 138
2.71514604561 -53.5381179456 135
2.71514604561 -53.5381179456 132
2.5427558205 -50.1388723618 129
2.71514604561 -53.5381179456 126
7.58516990521 -149.566805689 123
7.84375524288 -154.665674065 120
7.92995035544 -156.365296857 117
7.92995035544 -156.365296857 114
7.92995035544 -156.365296857 111
8.016145468 -158.064919649 108
8.18853569312 -161.464165233 105
8.36092591824 -164.863410817 102
8.4471210308 -166.563033609 99
8.53331614336 -168.262656401 96
8.57641369964 -169.112467796 93
8.57641369964 -169.112467796 90
8.57641369964 -169.112467796 87
8.57641369964 -169.112467796 84
8.6626088122 -170.812090588 81
8.18853569312 -161.464165233 78
8.18853569312 -161.464165233 75
8.18853569312 -161.464165233 72
8.2316332494 -162.313976629 69
8.18853569312 -161.464165233 66
8.14543813684 -160.614353837 63
8.016145468 -158.064919649 60
7.97304791172 -157.215108253 57
7.92995035544 -156.365296857 54
2.84443871445 -56.0875521335 42
2.84443871445 -56.0875521335 39
2.93063382701 -57.7871749254 36
2.93063382701 -57.7871749254 33
3.05992649585 -60.3366091133 30
2.88753627073 -56.9373635295 27
2.19797537026 -43.3403811941 15
2.58585337678 -50.9886837577 12
2.58585337678 -50.9886837577 9
2.80134115817 -55.2377407375 6
2.80134115817 -55.2377407375 3
-15.2227346087 224.975005717 534
-15.1652903271 224.126043431 528
-15.1078460456 223.277081146 525
-15.0504017641 222.42811886 513
-14.8780689194 219.881232003 504
-14.8206246379 219.032269717 498
-14.7631803563 218.183307431 492
-14.6482917933 216.48538286 480
-14.7631803563 218.183307431 477
-14.5908475117 215.636420574 474
-14.4185146671 213.089533717 462
-14.4759589486 213.938496003 459
-14.4185146671 213.089533717 453
-14.4185146671 213.089533717 450
-14.5908475117 215.636420574 447
-14.3610703855 212.240571431 441
-14.303626104 211.391609145 435
-14.1312932594 208.844722288 423
-14.1312932594 208.844722288 420
-14.0738489778 207.995760003 417
-14.0164046963 207.146797717 405
-13.9015161332 205.448873145 399
-13.8440718517 204.59991086 393
-13.7866275701 203.750948574 390
-13.7291832886 202.901986288 378
-13.671739007 202.053024002 375
-13.7291832886 202.901986288 372
-13.6142947255 201.204061717 369
-13.556850444 200.355099431 366
-13.4994061624 199.506137145 363
-13.556850444 200.355099431 360
-13.4994061624 199.506137145 357
-13.3845175993 197.808212574 354
-13.3845175993 197.808212574 351
-13.3270733178 196.959250288 348
-13.3845175993 197.808212574 345
-13.3270733178 196.959250288 342
-13.2121847547 195.261325717 339
-13.2696290362 196.110288002 336
-13.2696290362 196.110288002 333
-13.2121847547 195.261325717 330
-13.2121847547 195.261325717 327
-13.2121847547 195.261325717 324
-13.0972961916 193.563401145 321
-13.0398519101 192.714438859 318
-12.9824076285 191.865476574 315
-13.0398519101 192.714438859 312
-12.8675190655 190.167552002 306
-12.924963347 191.016514288 303
-12.8675190655 190.167552002 300
-12.924963347 191.016514288 297
-12.7526305024 188.469627431 294
3.38921261099 -50.0887748577 288
3.79132258178 -56.0315108578 285
4.65298680492 -68.7659451437 282
7.7549780082 -114.609908573 279
7.69753372665 -113.760946287 276
7.7549780082 -114.609908573 273
7.81242228974 -115.458870859 270
7.81242228974 -115.458870859 267
7.81242228974 -115.458870859 264
7.81242228974 -115.458870859 261
7.92731085282 -117.15679543 258
7.86986657128 -116.307833144 255
7.86986657128 -116.307833144 252
7.81242228974 -115.458870859 249
7.69753372665 -113.760946287 246
7.58264516357 -112.063021716 243
4.53809824183 -67.0680205722 240
4.48065396029 -66.2190582865 237
4.48065396029 -66.2190582865 234
4.53809824183 -67.0680205722 231
8.04219941591 -118.854720001 228
8.04219941591 -118.854720001 225
8.09964369745 -119.703682287 222
8.09964369745 -119.703682287 219
8.09964369745 -119.703682287 216
8.09964369745 -119.703682287 213
8.09964369745 -119.703682287 210
8.15708797899 -120.552644573 207
8.27197654208 -122.250569144 204
8.27197654208 -122.250569144 201
8.32942082362 -123.09953143 198
8.4443093867 -124.797456002 195
8.50175366824 -125.646418287 192
8.38686510516 -123.948493716 189
8.38686510516 -123.948493716 186
8.15708797899 -120.552644573 183
8.04219941591 -118.854720001 180
7.86986657128 -116.307833144 177
8.38686510516 -123.948493716 174
8.61664223133 -127.344342859 171
8.78897507596 -129.891229716 168
8.67408651287 -128.193305144 165
8.4443093867 -124.797456002 162
8.09964369745 -119.703682287 159
6.72098094044 -99.3285874298 156
8.67408651287 -128.193305144 153
8.67408651287 -128.193305144 150
8.67408651287 -128.193305144 147
8.61664223133 -127.344342859 144
8.04219941591 -118.854720001 141
8.15708797899 -120.552644573 138
3.61898973716 -53.4846240006 135
3.61898973716 -53.4846240006 132
3.38921261099 -50.0887748577 129
3.61898973716 -53.4846240006 126
10.167637833 -150.266324573 123
10.4548592407 -154.511136002 120
10.5697478038 -156.209060573 117
10.5697478038 -156.209060573 114
10.6271920853 -157.058022859 111
10.6846363668 -157.906985145 108
10.914413493 -161.302834288 105
11.1441906192 -164.698683431 102
11.2016349007 -165.547645716 99
11.3739677454 -168.094532573 96
11.4314120269 -168.943494859 93
11.4314120269 -168.943494859 90
11.4314120269 -168.943494859 87
11.4314120269 -168.943494859 84
11.3739677454 -168.094532573 81
11.2016349007 -165.547645716 78
11.2016349007 -165.547645716 75
11.2016349007 -165.547645716 72
11.2016349007 -165.547645716 69
11.1441906192 -164.698683431 66
10.8569692115 -160.453872002 63
10.7995249299 -159.604909716 60
10.8569692115 -160.453872002 57
10.8569692115 -160.453872002 54
3.79132258178 -56.0315108578 42
3.90621114487 -57.7294354293 39
3.90621114487 -57.7294354293 36
4.02109970795 -59.4273600007 33
4.02109970795 -59.4273600007 30
3.90621114487 -57.7294354293 27
2.98710264019 -44.1460388577 15
3.44665689253 -50.9377371435 12
3.44665689253 -50.9377371435 9
3.73387830024 -55.1825485721 6
3.73387830024 -55.1825485721 3
-19.0202741395 224.685811786 543
-18.5896264231 219.598585859 504
-18.5896264231 219.598585859 498
-18.5178518037 218.750714871 495
-18.4460771843 217.902843883 492
-18.3025279455 216.207101907 480
-18.4460771843 217.902843883 477
-18.2307533261 215.35923092 462
-18.0872040873 213.663488944 459
-18.0872040873 213.663488944 456
-18.015429468 212.815617956 453
-18.015429468 212.815617956 450
-17.9436548486 211.967746968 441
-17.8718802292 211.11987598 435
-17.656556371 208.576263017 420
-17.5130071322 206.880521041 405
-17.3694578934 205.184779065 399
-17.4412325128 206.032650053 396
-17.3694578934 205.184779065 393
-17.2259086546 203.489037089 390
-17.1541340352 202.641166101 381
-17.1541340352 202.641166101 378
-17.0105847964 200.945424126 375
-17.1541340352 202.641166101 372
-17.0105847964 200.945424126 369
-16.938810177 200.097553138 366
-16.7952609383 198.401811162 363
-16.8670355576 199.24968215 360
-16.7952609383 198.401811162 357
-16.7234863189 197.553940174 354
-16.7234863189 197.553940174 351
-16.6517116995 196.706069186 348
-16.6517116995 196.706069186 345
-16.6517116995 196.706069186 342
-16.6517116995 196.706069186 339
-16.5799370801 195.858198198 336
-16.5799370801 195.858198198 333
-16.5081624607 195.010327211 330
-16.4363878413 194.162456223 327
-16.4363878413 194.162456223 324
-16.3646132219 193.314585235 321
-16.2928386025 192.466714247 318
-16.2210639831 191.618843259 315
-16.2210639831 191.618843259 312
-16.1492893637 190.770972271 309
-16.1492893637 190.770972271 306
-16.1492893637 190.770972271 303
-16.0057401249 189.075230296 300
-16.1492893637 190.770972271 297
-15.9339655055 188.227359308 294
4.16292792487 -49.1765172966 288
4.80889949941 -56.8073561874 285
5.59842031275 -66.133937054 282
9.61779899883 -113.614712375 279
9.76134823762 -115.310454351 276
9.83312285701 -116.158325338 273
9.83312285701 -116.158325338 270
9.76134823762 -115.310454351 267
9.76134823762 -115.310454351 264
9.83312285701 -116.158325338 261
9.83312285701 -116.158325338 258
9.76134823762 -115.310454351 255
9.68957361822 -114.462583363 252
9.9048974764 -117.006196326 249
9.68957361822 -114.462583363 246
6.02906802912 -71.2211629813 243
5.95729340972 -70.3732919934 240
5.95729340972 -70.3732919934 237
5.95729340972 -70.3732919934 234
10.1202213346 -119.54980929 231
10.1202213346 -119.54980929 228
10.1202213346 -119.54980929 225
10.191995954 -120.397680278 222
10.191995954 -120.397680278 219
10.2637705734 -121.245551266 216
10.3355451928 -122.093422254 213
10.3355451928 -122.093422254 210
10.4790944316 -123.789164229 207
10.4073198122 -122.941293241 204
10.550869051 -124.637035217 201
10.550869051 -124.637035217 198
-5.88551879033 69.5254210055 195
10.7661929091 -127.180648181 192
10.6226436703 -125.484906205 189
10.6226436703 -125.484906205 186
10.1202213346 -119.54980929 183
10.1202213346 -119.54980929 180
10.6226436703 -125.484906205 177
10.8379675285 -128.028519169 174
11.6274883419 -137.355100035 171
11.3403898643 -133.963616084 168
11.1250660061 -131.42000312 165
10.6226436703 -125.484906205 162
10.191995954 -120.397680278 159
10.7661929091 -127.180648181 156
10.9097421479 -128.876390157 153
10.9097421479 -128.876390157 150
10.9097421479 -128.876390157 147
10.8379675285 -128.028519169 144
10.8379675285 -128.028519169 141
10.191995954 -120.397680278 138
4.37825178305 -51.7201302602 135
4.45002640244 -52.5680012481 132
4.23470254426 -50.0243882845 129
4.52180102184 -53.4158722359 126
12.6323330134 -149.225293866 123
13.1347553491 -155.160390781 120
13.2783045879 -156.856132756 117
13.3500792073 -157.704003744 114
13.3500792073 -157.704003744 111
13.3500792073 -157.704003744 108
13.5654030655 -160.247616708 105
14.2831492595 -168.726326587 81
14.2831492595 -168.726326587 78
14.2831492595 -168.726326587 75
14.2831492595 -168.726326587 72
14.3549238788 -169.574197574 69
14.2831492595 -168.726326587 66
14.2113746401 -167.878455599 63
13.6371776849 -161.095487696 60
13.6371776849 -161.095487696 57
13.6371776849 -161.095487696 54
13.7089523043 -161.943358684 51
4.80889949941 -56.8073561874 42
5.09599797699 -60.1988401389 39
4.88067411881 -57.6552271753 36
5.09599797699 -60.1988401389 33
4.9524487382 -58.5030981632 30
5.0242233576 -59.3509691511 27
4.30647716365 -50.8722592723 24
3.44518173092 -40.6978074179 18
3.7322802085 -44.0892913694 15
4.30647716365 -50.8722592723 12
4.37825178305 -51.7201302602 9
4.66535026063 -55.1116142117 6
4.59357564123 -54.2637432238 3
-22.7263031821 223.485982823 534
-22.7263031821 223.485982823 528
-22.5541342186 221.792907196 525
-22.2958807733 219.253293755 504
-22.1237118098 217.560218127 498
-22.2097962916 218.406755941 495
-22.1237118098 217.560218127 492
-21.9515428463 215.8671425 480
-22.1237118098 217.560218127 477
-21.6932894011 213.327529059 459
-21.6072049193 212.480991245 453
-21.6072049193 212.480991245 450
-21.8654583646 215.020604686 447
-21.5211204376 211.634453431 441
-21.4350359558 210.787915618 435
-21.0906980288 207.401764363 420
-21.1767825106 208.248302176 417
-21.0046135471 206.555226549 405
-20.8324445836 204.862150921 399
-20.7463601018 204.015613108 393
-20.6602756201 203.169075294 390
-20.5741911383 202.32253748 381
-20.5741911383 202.32253748 378
-20.4020221748 200.629461853 375
-20.5741911383 202.32253748 372
-20.4020221748 200.629461853 369
-20.3159376931 199.782924039 366
-20.2298532113 198.936386225 363
-20.2298532113 198.936386225 360
-20.2298532113 198.936386225 357
-20.0576842478 197.243310598 354
-20.0576842478 197.243310598 351
-19.9715997661 196.396772784 348
-20.0576842478 197.243310598 345
-19.9715997661 196.396772784 342
-19.8855152843 195.55023497 339
-19.8855152843 195.55023497 336
-19.8855152843 195.55023497 333
-19.7994308026 194.703697157 330
-19.8855152843 195.55023497 327
-19.7994308026 194.703697157 324
-19.5411773573 192.164083716 321
-19.5411773573 192.164083716 318
-19.4550928756 191.317545902 315
-19.4550928756 191.317545902 312
-19.2829239121 189.624470274 306
-19.3690083938 190.471008088 303
-19.2829239121 189.624470274 300
-19.3690083938 190.471008088 297
-19.1968394303 188.777932461 294
5.76766027727 -56.7180335196 285
11.5353205545 -113.436067039 282
11.6214050363 -114.282604853 279
11.6214050363 -114.282604853 276
11.707489518 -115.129142667 273
11.707489518 -115.129142667 270
11.707489518 -115.129142667 267
11.6214050363 -114.282604853 264
11.7935739998 -115.97568048 261
11.7935739998 -115.97568048 258
11.7935739998 -115.97568048 255
11.6214050363 -114.282604853 252
11.6214050363 -114.282604853 249
11.4492360728 -112.589529225 246
7.23109646703 -71.1091763529 243
7.40326543053 -72.8022519804 240
7.31718094878 -71.9557141666 237
7.40326543053 -72.8022519804 234
12.2239964085 -120.208369549 231
12.2239964085 -120.208369549 228
12.2239964085 -120.208369549 225
12.3100808903 -121.054907363 222
12.3100808903 -121.054907363 219
12.3100808903 -121.054907363 216
12.396165372 -121.901445176 213
12.5683343355 -123.594520804 210
12.6544188173 -124.441058618 207
12.9987567443 -127.827209872 204
13.2570101895 -130.366823314 201
13.084841226 -128.673747686 198
-7.23109646703 71.1091763529 195
12.8265877808 -126.134134245 192
12.6544188173 -124.441058618 189
12.4822498538 -122.74798299 186
12.3100808903 -121.054907363 183
12.2239964085 -120.208369549 180
12.8265877808 -126.134134245 177
12.9987567443 -127.827209872 174
13.9456860436 -137.139125823 171
13.6013481165 -133.752974569 168
13.3430946713 -131.213361127 165
12.8265877808 -126.134134245 162
12.2239964085 -120.208369549 159
12.9126722625 -126.980672059 156
12.9987567443 -127.827209872 153
13.1709257078 -129.5202855 150
13.084841226 -128.673747686 147
13.084841226 -128.673747686 144
12.9987567443 -127.827209872 141
12.2239964085 -120.208369549 138
5.25115338677 -51.6388066372 135
5.42332235027 -53.3318822647 132
5.07898442327 -49.9457310098 129
5.33723786852 -52.485344451 126
15.9256291238 -156.609495539 108
16.0117136056 -157.456033353 105
17.1308118683 -168.461024931 81
17.1308118683 -168.461024931 78
17.1308118683 -168.461024931 75
17.1308118683 -168.461024931 72
17.1308118683 -168.461024931 69
17.1308118683 -168.461024931 66
17.0447273866 -167.614487118 63
16.2699670508 -159.995646794 60
16.3560515326 -160.842184608 57
16.3560515326 -160.842184608 54
5.68157579552 -55.8714957059 42
6.02591372252 -59.2576469608 39
6.11199820427 -60.1041847745 36
5.85374475902 -57.5645713333 33
6.28416716777 -61.7972604019 30
6.02591372252 -59.2576469608 27
5.25115338677 -51.6388066372 24
4.13205512401 -40.6338150588 18
4.47639305102 -44.0199663137 15
5.16506890502 -50.7922688235 12
5.25115338677 -51.6388066372 9
5.68157579552 -55.8714957059 6
4.64856201452 -45.7130419412 3
-26.4976236007 223.070269911 534
-26.3972538143 222.225306768 528
-26.3972538143 222.225306768 525
-26.2968840279 221.380343624 510
-25.7950350961 217.155527906 504
-25.8954048825 218.00049105 498
-25.7950350961 217.155527906 492
-25.5942955234 215.465601619 486
-25.6946653097 216.310564763 483
-25.6946653097 216.310564763 480
-25.7950350961 217.155527906 477
-25.493925737 214.620638475 468
-25.2931861643 212.930712188 459
-25.1928163779 212.085749045 453
-25.1928163779 212.085749045 450
-25.493925737 214.620638475 447
-24.7913372324 208.70589647 441
-24.6909674461 207.860933327 429
-24.8917070188 209.550859614 426
-24.6909674461 207.860933327 423
-24.5905976597 207.015970183 420
-24.5905976597 207.015970183 417
-24.4902278733 206.171007039 405
-24.2894883006 204.481080752 399
-24.1891185142 203.636117609 393
-24.0887487279 202.791154465 390
-24.0887487279 202.791154465 384
-23.9883789415 201.946191321 381
-23.9883789415 201.946191321 378
-23.8880091551 201.101228178 375
-23.9883789415 201.946191321 372
-23.7876393688 200.256265034 369
-23.6872695824 199.411301891 366
-23.586899796 198.566338747 363
-23.586899796 198.566338747 360
-23.586899796 198.566338747 357
-23.3861602233 196.87641246 354
-23.3861602233 196.87641246 351
-23.3861602233 196.87641246 348
-23.3861602233 196.87641246 345
-23.2857904369 196.031449316 342
-23.1854206506 195.186486173 339
-23.1854206506 195.186486173 336
-23.1854206506 195.186486173 333
-23.0850508642 194.341523029 330
-22.9846810778 193.496559885 327
-23.0850508642 194.341523029 324
-22.7839415051 191.806633598 321
-22.7839415051 191.806633598 318
-22.6835717187 190.961670455 315
-22.7839415051 191.806633598 312
-22.5832019324 190.116707311 309
-22.5832019324 190.116707311 306
-22.5832019324 190.116707311 303
-22.482832146 189.271744167 300
-22.5832019324 190.116707311 297
-22.3824623596 188.426781024 294
6.2229267547 -52.3877149035 288
6.8251454729 -57.4574937651 285
13.6502909458 -114.91498753 282
13.6502909458 -114.91498753 279
13.6502909458 -114.91498753 276
13.6502909458 -114.91498753 273
13.6502909458 -114.91498753 270
13.8510305185 -116.604913817 267
13.7506607322 -115.759950674 264
13.8510305185 -116.604913817 261
13.6502909458 -114.91498753 258
13.7506607322 -115.759950674 255
13.5499211594 -114.070024387 252
13.148442014 -110.690171812 249
12.345483723 -103.930466663 246
12.0443743639 -101.395577232 243
9.53512970478 -80.2714986424 240
9.23402034568 -77.7366092116 237
14.3528794504 -120.829729535 234
14.3528794504 -120.829729535 231
14.3528794504 -120.829729535 228
14.4532492367 -121.674692679 225
14.4532492367 -121.674692679 222
14.6539888095 -123.364618966 219
14.6539888095 -123.364618966 216
14.7543585958 -124.20958211 213
14.7543585958 -124.20958211 210
15.4569471004 -130.124324115 207
15.2562075277 -128.434397828 204
15.4569471004 -130.124324115 201
15.0554679549 -126.744471541 198
14.8547283822 -125.054545253 195
14.9550981686 -125.899508397 192
14.8547283822 -125.054545253 189
14.8547283822 -125.054545253 186
14.8547283822 -125.054545253 183
14.9550981686 -125.899508397 180
15.2562075277 -128.434397828 177
15.2562075277 -128.434397828 174
16.460644964 -138.573955551 171
16.1595356049 -136.03906612 168
15.7580564595 -132.659213546 165
15.4569471004 -130.124324115 162
15.356577314 -129.279360971 159
15.4569471004 -130.124324115 156
15.4569471004 -130.124324115 153
15.356577314 -129.279360971 150
15.356577314 -129.279360971 147
15.356577314 -129.279360971 144
15.2562075277 -128.434397828 141
14.3528794504 -120.829729535 138
6.12255696833 -51.5427517599 135
6.12255696833 -51.5427517599 132
5.9218173956 -49.8528254726 129
6.2229267547 -52.3877149035 126
17.263603255 -145.3336607 123
17.5647126141 -147.868550131 120
17.8658219732 -150.403439562 117
18.1669313323 -152.938328992 114
18.367670905 -154.62825528 111
18.5684104777 -156.318181567 108
18.6687802641 -157.16314471 105
18.7691500505 -158.008107854 102
18.9698896232 -159.698034141 99
18.9698896232 -159.698034141 96
19.0702594096 -160.542997285 93
19.1706291959 -161.387960428 90
19.1706291959 -161.387960428 87
19.2709989823 -162.232923572 84
19.9735874869 -168.147665577 81
19.9735874869 -168.147665577 78
19.9735874869 -168.147665577 75
20.0739572732 -168.992628721 72
19.9735874869 -168.147665577 69
19.9735874869 -168.147665577 66
19.8732177005 -167.302702434 63
19.0702594096 -160.542997285 60
19.0702594096 -160.542997285 57
19.0702594096 -160.542997285 54
19.0702594096 -160.542997285 51
7.42736419109 -62.5272726267 42
7.02588504563 -59.1474200523 39
6.92551525926 -58.3024569087 36
7.126254832 -59.9923831959 33
7.126254832 -59.9923831959 30
7.02588504563 -59.1474200523 27
6.02218718197 -50.6977886162 24
5.21922889104 -43.9380834674 15
5.9218173956 -49.8528254726 12
6.02218718197 -50.6977886162 9
6.5240361138 -54.9226043343 6
6.32329654107 -53.2326780471 3
-30.3760113708 223.434068082 534
-30.2613849128 222.590920655 528
-30.1467584548 221.747773228 525
-29.6882526228 218.375183521 504
-29.6882526228 218.375183521 498
-29.4589997068 216.688888668 492
-29.2297467908 215.002593814 480
-29.4589997068 216.688888668 477
-28.8858674168 212.473151534 459
-28.8858674168 212.473151534 453
-28.7712409588 211.630004108 450
-29.1151203328 214.159446388 447
-28.4273615848 209.100561827 441
-28.6566145008 210.786856681 435
-28.3127351268 208.257414401 429
-28.0834822108 206.571119547 420
-27.9688557528 205.727972121 417
-27.9688557528 205.727972121 405
-27.7396028368 204.041677267 399
-27.7396028368 204.041677267 393
-27.5103499208 202.355382414 390
-27.5103499208 202.355382414 384
-27.3957234627 201.512234987 381
-27.3957234627 201.512234987 378
-27.2810970047 200.66908756 375
-27.3957234627 201.512234987 372
-27.1664705467 199.825940133 369
-27.0518440887 198.982792707 366
-26.9372176307 198.13964528 363
-26.9372176307 198.13964528 360
-26.9372176307 198.13964528 357
-26.7079647147 196.453350427 354
-26.7079647147 196.453350427 351
-26.5933382567 195.610203 348
-26.5933382567 195.610203 345
-26.5933382567 195.610203 342
-26.4787117987 194.767055573 339
-26.4787117987 194.767055573 336
-26.4787117987 194.767055573 333
-26.3640853407 193.923908146 330
-26.3640853407 193.923908146 327
-26.3640853407 193.923908146 324
-26.1348324247 192.237613293 321
-25.9055795087 190.551318439 318
-25.9055795087 190.551318439 315
-25.9055795087 190.551318439 312
-25.9055795087 190.551318439 309
-25.7909530507 189.708171013 306
-25.6763265927 188.865023586 303
-25.5617001347 188.021876159 300
-25.7909530507 189.708171013 297
-25.5617001347 188.021876159 294
-25.4470736767 187.178728733 291
7.10684039619 -52.2751404568 288
8.71161080824 -64.079204431 285
15.5891982884 -114.668050034 282
15.7038247464 -115.511197461 279
15.7038247464 -115.511197461 276
15.7038247464 -115.511197461 273
15.7038247464 -115.511197461 270
15.9330776624 -117.197492315 267
15.8184512044 -116.354344888 264
15.8184512044 -116.354344888 261
15.8184512044 -116.354344888 258
15.7038247464 -115.511197461 255
15.3599453724 -112.981755181 252
15.0160659984 -110.452312901 249
14.0990543344 -103.707133487 246
13.9844278764 -102.86398606 243
11.3480193423 -83.4715952456 240
11.4626458003 -84.3147426723 237
16.3915834944 -120.570082021 234
16.5062099525 -121.413229448 231
16.5062099525 -121.413229448 228
16.3915834944 -120.570082021 225
16.7354628685 -123.099524302 222
16.7354628685 -123.099524302 219
16.7354628685 -123.099524302 216
16.8500893265 -123.942671728 213
16.9647157845 -124.785819155 210
17.1939687005 -126.472114009 207
17.0793422425 -125.628966582 204
-8.82623726624 64.9223518577 201
16.9647157845 -124.785819155 198
17.0793422425 -125.628966582 195
17.0793422425 -125.628966582 192
17.0793422425 -125.628966582 189
17.0793422425 -125.628966582 186
17.0793422425 -125.628966582 183
17.0793422425 -125.628966582 180
17.1939687005 -126.472114009 177
17.4232216165 -128.158408862 174
17.6524745325 -129.844703715 171
17.8817274485 -131.530998569 168
17.7671009905 -130.687851142 165
17.6524745325 -129.844703715 162
17.5378480745 -129.001556289 159
17.6524745325 -129.844703715 156
17.6524745325 -129.844703715 153
17.7671009905 -130.687851142 150
17.6524745325 -129.844703715 147
17.5378480745 -129.001556289 144
17.5378480745 -129.001556289 141
16.3915834944 -120.570082021 138
7.10684039619 -52.2751404568 135
7.10684039619 -52.2751404568 132
6.76296102218 -49.7456981767 129
7.2214668542 -53.1182878836 126
19.8303772345 -145.864504823 123
20.0596301505 -147.550799677 120
20.2888830666 -149.23709453 117
20.7473888986 -152.609684237 114
20.9766418146 -154.29597909 111
21.2058947306 -155.982273944 108
21.4351476466 -157.668568797 105
21.3205211886 -156.825421371 102
21.5497741046 -158.511716224 99
21.6644005626 -159.354863651 96
21.7790270206 -160.198011077 93
21.8936534786 -161.041158504 90
21.8936534786 -161.041158504 87
22.0082799366 -161.884305931 84
22.6960386846 -166.943190491 81
22.8106651426 -167.786337918 78
22.9252916006 -168.629485345 75
22.9252916006 -168.629485345 72
22.8106651426 -167.786337918 69
22.8106651426 -167.786337918 66
22.6960386846 -166.943190491 63
21.7790270206 -160.198011077 60
21.7790270206 -160.198011077 57
21.7790270206 -160.198011077 54
21.7790270206 -160.198011077 51
8.25310497623 -60.7066147241 42
8.13847851822 -59.8634672974 39
8.02385206022 -59.0203198706 36
8.25310497623 -60.7066147241 33
8.13847851822 -59.8634672974 30
8.13847851822 -59.8634672974 27
6.99221393819 -51.4319930301 24
5.84594935816 -43.0005187629 15
6.87758748019 -50.5888456034 12
6.87758748019 -50.5888456034 9
7.4507197702 -54.804582737 6
7.4507197702 -54.804582737 3
-34.7896159896 227.094618887 573
-34.016513412 222.0480718 543
-34.016513412 222.0480718 537
-34.016513412 222.0480718 534
-33.8876629824 221.206980619 528
-33.7588125528 220.365889438 522
-33.3722612641 217.842615895 504
-33.3722612641 217.842615895 498
-33.2434108345 217.001524714 495
-33.1145604049 216.160433533 492
-32.9857099753 215.319342352 483
-32.8568595457 214.478251171 480
-32.8568595457 214.478251171 477
-32.7280091161 213.63715999 474
-32.7280091161 213.63715999 468
-32.5991586865 212.796068808 462
-32.4703082569 211.954977627 456
-32.4703082569 211.954977627 453
-32.4703082569 211.954977627 450
-32.2126073978 210.272795265 441
-32.0837569682 209.431704084 435
-31.6972056794 206.908430541 432
-31.826056109 207.749521722 429
-31.826056109 207.749521722 420
-31.3106543906 204.385156998 408
-31.0529535314 202.702974636 399
-31.181803961 203.544065817 396
-31.0529535314 202.702974636 393
-30.9241031018 201.861883455 390
-30.7952526723 201.020792274 381
-30.7952526723 201.020792274 378
-30.6664022427 200.179701093 375
-30.7952526723 201.020792274 372
-30.7952526723 201.020792274 369
-30.5375518131 199.338609911 366
-30.2798509539 197.656427549 363
-30.5375518131 199.338609911 360
-30.1510005243 196.815336368 357
-30.1510005243 196.815336368 354
-30.1510005243 196.815336368 351
-29.8932996651 195.133154006 348
-30.0221500947 195.974245187 345
-29.8932996651 195.133154006 342
-29.8932996651 195.133154006 339
-29.7644492355 194.292062825 336
-29.7644492355 194.292062825 333
-29.6355988059 193.450971644 330
-29.6355988059 193.450971644 327
-29.5067483763 192.609880463 324
-29.3778979468 191.768789282 321
-29.3778979468 191.768789282 318
-29.1201970876 190.08660692 315
-29.1201970876 190.08660692 312
-29.1201970876 190.08660692 309
-28.8624962284 188.404424558 306
-28.991346658 189.245515739 303
-28.8624962284 188.404424558 300
-28.991346658 189.245515739 297
-28.6047953692 186.722242196 294
8.11757706423 -52.9887444069 288
9.66378221933 -63.0818385796 285
17.652508854 -115.229491805 282
17.9102097132 -116.911674167 279
17.652508854 -115.229491805 276
17.7813592836 -116.070582986 273
17.9102097132 -116.911674167 270
17.7813592836 -116.070582986 267
17.9102097132 -116.911674167 264
17.7813592836 -116.070582986 261
17.9102097132 -116.911674167 258
17.9102097132 -116.911674167 255
17.1371071356 -111.865127081 252
16.8794062764 -110.182944719 249
15.9774532693 -104.295306452 246
15.8486028397 -103.454215271 243
13.4004446775 -87.4734828304 240
18.5544618611 -121.117130073 237
18.5544618611 -121.117130073 234
18.5544618611 -121.117130073 231
18.5544618611 -121.117130073 228
18.6833122907 -121.958221254 225
19.0698635795 -124.481494797 222
19.0698635795 -124.481494797 219
18.9410131499 -123.640403616 216
19.0698635795 -124.481494797 213
19.0698635795 -124.481494797 210
19.0698635795 -124.481494797 207
-9.14838050096 59.7174738553 204
-10.3080343673 67.2872944849 201
19.0698635795 -124.481494797 198
19.0698635795 -124.481494797 195
19.3275644387 -126.163677159 192
19.1987140091 -125.322585978 189
19.0698635795 -124.481494797 186
19.1987140091 -125.322585978 183
19.3275644387 -126.163677159 180
19.5852652978 -127.845859521 177
19.842966157 -129.528041883 174
19.9718165866 -130.369133064 171
20.1006670162 -131.210224246 168
20.2295174458 -132.051315427 165
19.842966157 -129.528041883 162
19.842966157 -129.528041883 159
19.9718165866 -130.369133064 156
20.1006670162 -131.210224246 153
20.1006670162 -131.210224246 150
19.842966157 -129.528041883 147
19.842966157 -129.528041883 144
19.842966157 -129.528041883 141
18.4256114315 -120.276038892 138
7.85987620505 -51.3065620447 135
7.85987620505 -51.3065620447 132
7.60217534587 -49.6243796826 129
7.98872663464 -52.1476532258 126
22.1622738897 -144.667683143 123
22.5488251784 -147.190956686 120
22.8065260376 -148.873139048 117
23.321927756 -152.237503772 114
23.5796286152 -153.919686134 111
23.8373294743 -155.601868496 108
23.9661799039 -156.442959677 105
23.9661799039 -156.442959677 102
24.2238807631 -158.125142039 99
24.2238807631 -158.125142039 96
24.4815816223 -159.807324402 93
24.4815816223 -159.807324402 90
24.6104320519 -160.648415583 87
24.7392824815 -161.489506764 84
25.512385059 -166.53605385 81
25.6412354886 -167.377145031 78
25.7700859182 -168.218236212 75
25.7700859182 -168.218236212 72
25.7700859182 -168.218236212 69
25.6412354886 -167.377145031 66
25.512385059 -166.53605385 63
24.4815816223 -159.807324402 60
24.4815816223 -159.807324402 57
24.4815816223 -159.807324402 54
24.4815816223 -159.807324402 51
8.50412835301 -55.51201795 45
9.14838050096 -59.7174738553 42
9.66378221933 -63.0818385796 39
9.14838050096 -59.7174738553 36
9.27723093055 -60.5585650364 33
9.53493178974 -62.2407473985 30
9.14838050096 -59.7174738553 27
8.50412835301 -55.51201795 24
6.70022233873 -43.7367414152 15
7.47332491628 -48.7832885015 12
7.73102577546 -50.4654708637 9
8.37527792342 -54.670926769 6
8.24642749382 -53.8298355879 3
-37.7619378544 221.441878208 543
-37.9049754978 222.280673201 534
-37.0467496375 217.247903242 504
-37.0467496375 217.247903242 498
-37.0467496375 217.247903242 495
-36.9037119941 216.409108249 492
-36.4745990639 213.892723269 483
-36.4745990639 213.892723269 480
-36.6176367073 214.731518262 477
-36.1885237772 212.215133283 474
-36.1885237772 212.215133283 462
-35.9024484904 210.537543296 453
-35.759410847 209.698748303 441
-35.6163732036 208.85995331 435
-35.4733355602 208.021158317 429
-35.1872602734 206.34356833 423
-35.1872602734 206.34356833 420
-34.7581473433 203.827183351 408
-34.6151096999 202.988388357 399
-34.6151096999 202.988388357 396
-34.4720720565 202.149593364 393
-34.3290344131 201.310798371 390
-34.3290344131 201.310798371 384
-34.1859967697 200.472003378 381
-34.1859967697 200.472003378 378
-34.0429591263 199.633208385 375
-34.1859967697 200.472003378 372
-34.1859967697 200.472003378 369
-33.7568838396 197.955618398 366
-33.6138461962 197.116823405 363
-33.899921483 198.794413391 360
-33.6138461962 197.116823405 357
-33.4708085528 196.278028412 354
-33.3277709094 195.439233419 351
-33.184733266 194.600438425 348
-33.3277709094 195.439233419 345
-33.184733266 194.600438425 342
-33.0416956226 193.761643432 339
-33.0416956226 193.761643432 336
-33.0416956226 193.761643432 333
-32.8986579792 192.922848439 330
-32.8986579792 192.922848439 327
-32.7556203358 192.084053446 324
-32.4695450491 190.406463459 321
-32.6125826925 191.245258452 318
-32.3265074057 189.567668466 315
-32.3265074057 189.567668466 312
-32.1834697623 188.728873473 309
-32.0404321189 187.89007848 306
-32.1834697623 188.728873473 303
-32.0404321189 187.89007848 300
-32.1834697623 188.728873473 297
-31.8973944755 187.051283486 294
9.29744682022 -54.5216745588 288
19.4531195008 -114.076119077 285
19.7391947875 -115.753709063 282
19.7391947875 -115.753709063 279
19.5961571442 -114.91491407 276
19.7391947875 -115.753709063 273
20.0252700743 -117.43129905 270
19.8822324309 -116.592504057 267
19.8822324309 -116.592504057 264
20.0252700743 -117.43129905 261
20.0252700743 -117.43129905 258
19.8822324309 -116.592504057 255
19.3100818574 -113.237324084 252
18.8809689272 -110.720939104 249
18.3088183537 -107.365759131 246
14.5898396256 -85.5570893077 243
20.7404582913 -121.625274016 240
20.5974206479 -120.786479023 237
20.5974206479 -120.786479023 234
20.5974206479 -120.786479023 231
21.1695712214 -124.141658995 228
21.1695712214 -124.141658995 225
21.1695712214 -124.141658995 222
21.1695712214 -124.141658995 219
21.1695712214 -124.141658995 216
21.026533578 -123.302864002 213
21.026533578 -123.302864002 210
-9.86959739377 57.8768545317 207
-10.7278232541 62.9096244909 204
21.1695712214 -124.141658995 201
21.1695712214 -124.141658995 198
21.3126088648 -124.980453989 195
21.741721795 -127.496838968 192
21.3126088648 -124.980453989 189
21.3126088648 -124.980453989 186
21.4556465082 -125.819248982 183
21.4556465082 -125.819248982 180
21.741721795 -127.496838968 177
