105.940406632 -84.9036527045 88
106.492179584 -85.345859229 85
107.595725486 -86.230272278 82
110.354590242 -88.4413049005 79
110.906363193 -88.883511425 76
111.458136144 -89.3257179496 73
110.906363193 -88.883511425 70
110.906363193 -88.883511425 67
-88.3477359859 68.3862379882 370
-87.7885730999 67.9534136971 367
-87.7885730999 67.9534136971 364
-87.2294102139 67.520589406 361
-86.6702473279 67.087765115 358
-85.5519215559 66.2221165328 355
-85.5519215559 66.2221165328 352
-85.5519215559 66.2221165328 349
-85.5519215559 66.2221165328 346
-85.5519215559 66.2221165328 343
-84.9927586699 65.7892922418 340
-84.433595784 65.3564679507 337
-84.433595784 65.3564679507 334
-83.874432898 64.9236436596 331
-83.315270012 64.4908193686 328
-82.756107126 64.0579950775 325
-82.756107126 64.0579950775 322
-82.19694424 63.6251707865 319
-81.637781354 63.1923464954 316
69.3361978623 -53.670212092 313
74.9278267222 -57.9984550026 310
78.2828040381 -60.595400749 307
83.874432898 -64.9236436596 301
87.7885730999 -67.9534136971 298
88.9068988718 -68.8190622792 295
92.8210390737 -71.8488323167 289
95.0576906177 -73.5801294809 286
97.2943421616 -75.3114266452 283
98.4126679336 -76.1770752273 280
99.5309937056 -77.0427238094 277
100.649319478 -77.9083723916 274
101.76764525 -78.7740209737 271
102.885971022 -79.6396695558 268
103.445133907 -80.0724938469 265
105.122622565 -81.3709667201 262
106.240948337 -82.2366153022 259
106.800111223 -82.6694395933 256
107.918436995 -83.5350881754 253
107.918436995 -83.5350881754 250
109.036762767 -84.4007367575 247
110.155088539 -85.2663853397 244
110.714251425 -85.6992096307 241
111.273414311 -86.1320339218 238
111.273414311 -86.1320339218 235
111.832577197 -86.5648582129 232
111.832577197 -86.5648582129 229
113.510065855 -87.8633310861 226
112.950902969 -87.430506795 223
67.0995463184 -51.9389149277 220
70.4545236343 -54.5358606741 217
115.187554513 -89.1618039592 214
114.628391627 -88.7289796682 211
114.628391627 -88.7289796682 208
114.069228741 -88.2961553771 205
113.510065855 -87.8633310861 202
112.950902969 -87.430506795 199
113.510065855 -87.8633310861 196
112.391740083 -86.9976825039 193
111.832577197 -86.5648582129 190
111.832577197 -86.5648582129 187
111.832577197 -86.5648582129 184
110.714251425 -85.6992096307 181
110.714251425 -85.6992096307 178
110.155088539 -85.2663853397 175
109.595925653 -84.8335610486 172
109.595925653 -84.8335610486 169
108.477599881 -83.9679124665 163
55.9162885986 -43.2824291064 148
55.3571257127 -42.8496048154 145
54.2387999407 -41.9839562332 142
54.2387999407 -41.9839562332 139
53.6796370547 -41.5511319422 136
53.1204741687 -41.1183076511 133
91.7027133018 -70.9831837345 130
93.3802019597 -72.2816566077 127
95.6168535037 -74.012953772 124
97.8535050476 -75.7442509363 121
98.9718308196 -76.6098995184 118
101.208482364 -78.3411966826 115
102.326808136 -79.2068452648 112
102.885971022 -79.6396695558 109
104.563459679 -80.938142429 106
105.122622565 -81.3709667201 103
105.681785451 -81.8037910112 100
106.240948337 -82.2366153022 97
107.359274109 -83.1022638843 94
107.359274109 -83.1022638843 91
107.918436995 -83.5350881754 88
109.036762767 -84.4007367575 85
109.036762767 -84.4007367575 82
112.391740083 -86.9976825039 79
111.832577197 -86.5648582129 76
112.950902969 -87.430506795 73
112.391740083 -86.9976825039 70
112.391740083 -86.9976825039 67
-89.4901422907 66.884336229 370
-88.923748985 66.4610176453 367
-88.923748985 66.4610176453 364
-88.3573556794 66.0376990616 361
-87.7909623738 65.6143804778 358
-86.6581757625 64.7677433104 355
-86.6581757625 64.7677433104 352
-86.6581757625 64.7677433104 349
-86.6581757625 64.7677433104 346
-86.6581757625 64.7677433104 343
-86.0917824568 64.3444247266 340
-86.0917824568 64.3444247266 337
-85.5253891512 63.9211061429 334
-84.9589958456 63.4977875592 331
-84.3926025399 63.0744689755 328
-83.8262092343 62.6511503917 325
-83.8262092343 62.6511503917 322
-83.2598159287 62.227831808 319
-82.693422623 61.8045132243 316
-82.1270293174 61.3811946406 313
73.6311297328 -55.0314158846 310
77.5958828723 -57.9946459707 307
81.5606360117 -60.9578760568 304
83.8262092343 -62.6511503917 301
86.0917824568 -64.3444247266 298
88.923748985 -66.4610176453 295
91.1893222076 -68.1542919802 292
92.8885021245 -69.4242477314 289
95.154075347 -71.1175220663 286
96.2868619583 -71.9641592337 283
97.9860418752 -73.2341149849 280
99.6852217921 -74.5040707361 277
100.818008403 -75.3507079036 274
102.51718832 -76.6206636548 271
103.649974932 -77.4673008222 268
104.216368237 -77.8906194059 265
104.782761543 -78.3139379897 262
105.915548154 -79.1605751571 259
108.181121377 -80.853849492 256
108.181121377 -80.853849492 253
108.181121377 -80.853849492 250
109.313907988 -81.7004866595 247
109.880301294 -82.1238052432 244
111.013087905 -82.9704424107 241
112.145874516 -83.8170795781 238
112.712267822 -84.2403981619 235
112.712267822 -84.2403981619 232
112.712267822 -84.2403981619 229
113.278661127 -84.6637167456 226
113.845054433 -85.0870353293 223
67.4008033708 -50.3749114636 220
67.9671966765 -50.7982300474 217
114.977841044 -85.9336724968 214
114.411447739 -85.510353913 211
114.411447739 -85.510353913 208
113.845054433 -85.0870353293 205
114.411447739 -85.510353913 202
113.278661127 -84.6637167456 199
113.278661127 -84.6637167456 196
113.278661127 -84.6637167456 193
112.145874516 -83.8170795781 190
112.712267822 -84.2403981619 187
111.579481211 -83.3937609944 184
111.013087905 -82.9704424107 178
109.880301294 -82.1238052432 172
55.5065439524 -41.4852212053 148
54.9401506468 -41.0619026216 145
53.8073640355 -40.2152654542 142
53.2409707299 -39.7919468704 139
52.6745774243 -39.3686282867 136
52.1081841186 -38.945309703 133
50.9753975073 -38.0986725355 130
95.154075347 -71.1175220663 127
98.5524351809 -73.6574335687 124
101.384401709 -75.7740264873 121
104.782761543 -78.3139379897 118
105.915548154 -79.1605751571 115
105.915548154 -79.1605751571 112
105.915548154 -79.1605751571 109
107.048334765 -80.0072123246 106
109.880301294 -82.1238052432 103
111.579481211 -83.3937609944 100
112.145874516 -83.8170795781 97
113.278661127 -84.6637167456 94
113.278661127 -84.6637167456 91
113.278661127 -84.6637167456 88
113.845054433 -85.0870353293 85
113.845054433 -85.0870353293 82
114.411447739 -85.510353913 79
114.411447739 -85.510353913 76
114.411447739 -85.510353913 73
-90.6070193058 65.3633540488 370
-90.0335571583 64.9496619346 367
-90.0335571583 64.9496619346 364
-89.4600950108 64.5359698204 361
-88.8866328633 64.1222777061 358
-87.7397085683 63.2948934777 355
-87.7397085683 63.2948934777 352
-87.7397085683 63.2948934777 349
-87.7397085683 63.2948934777 346
-87.7397085683 63.2948934777 343
-87.1662464208 62.8812013634 340
-86.5927842733 62.4675092492 337
-86.5927842733 62.4675092492 334
-86.0193221258 62.053817135 331
-85.4458599783 61.6401250207 328
-84.8723978308 61.2264329065 325
-84.8723978308 61.2264329065 322
-84.2989356833 60.8127407923 319
-83.7254735358 60.399048678 316
-83.1520113883 59.9853565638 313
73.9766170282 -53.3662827361 310
77.4173899132 -55.8484354215 307
81.4316249457 -58.7442802211 304
83.7254735358 -60.399048678 301
87.1662464208 -62.8812013634 298
88.8866328633 -64.1222777061 295
91.1804814533 -65.7770461631 292
93.4743300434 -67.43181462 289
96.9151029284 -69.9139673054 283
99.2089515184 -71.5687357623 280
99.7824136659 -71.9824278766 277
100.929337961 -72.809812105 274
103.223186551 -74.464580562 271
104.370110846 -75.2919647904 268
104.943572993 -75.7056569047 265
106.090497288 -76.5330411331 262
107.237421583 -77.3604253616 259
108.384345878 -78.1878095901 256
111.251656616 -80.2562701612 253
111.251656616 -80.2562701612 250
111.825118764 -80.6699622755 247
112.398580911 -81.0836543897 244
112.398580911 -81.0836543897 241
112.972043059 -81.4973465039 238
114.692429501 -82.7384228466 235
114.692429501 -82.7384228466 232
115.265891649 -83.1521149609 229
115.265891649 -83.1521149609 226
115.265891649 -83.1521149609 223
114.692429501 -82.7384228466 220
66.5216091106 -47.988285251 217
115.265891649 -83.1521149609 214
115.839353796 -83.5658070751 211
115.265891649 -83.1521149609 205
115.265891649 -83.1521149609 202
114.118967354 -82.3247307324 199
114.118967354 -82.3247307324 196
112.972043059 -81.4973465039 190
112.398580911 -81.0836543897 187
112.398580911 -81.0836543897 184
111.251656616 -80.2562701612 181
111.251656616 -80.2562701612 178
55.0523661605 -39.7144429664 148
54.478904013 -39.3007508521 145
53.331979718 -38.4733666237 142
68.8154577006 -49.643053708 136
68.2419955531 -49.2293615937 133
90.6070193058 -65.3633540488 130
50.4646689805 -36.4049060525 127
98.6354893709 -71.1550436481 124
102.649724403 -74.0508884477 121
106.090497288 -76.5330411331 118
106.663959436 -76.9467332474 115
106.663959436 -76.9467332474 112
107.237421583 -77.3604253616 109
108.384345878 -78.1878095901 106
110.104732321 -79.4288859328 103
112.972043059 -81.4973465039 100
113.545505206 -81.9110386182 97
114.692429501 -82.7384228466 94
114.692429501 -82.7384228466 91
114.692429501 -82.7384228466 88
114.692429501 -82.7384228466 85
114.692429501 -82.7384228466 82
114.118967354 -82.3247307324 79
-91.6980484144 63.8237253456 370
-91.1176810193 63.4197777169 367
-91.1176810193 63.4197777169 364
-90.5373136243 63.0158300881 361
-89.9569462293 62.6118824593 358
-89.3765788343 62.2079348306 355
-88.7962114392 61.8039872018 352
-88.7962114392 61.8039872018 349
-88.7962114392 61.8039872018 346
-88.7962114392 61.8039872018 343
-88.2158440442 61.400039573 340
-88.2158440442 61.400039573 337
-87.6354766492 60.9960919442 334
-87.0551092542 60.5921443155 331
-86.4747418591 60.1881966867 328
-85.8943744641 59.7842490579 325
-85.8943744641 59.7842490579 322
-85.3140070691 59.3803014292 319
-84.733639674 58.9763538004 316
-84.153272279 58.5724061716 313
74.2870265635 -51.7052964825 310
77.7692309337 -54.1289822552 307
81.8318026989 -56.9566156566 304
83.572904884 -58.1684585429 301
87.0551092542 -60.5921443155 298
88.7962114392 -61.8039872018 295
91.6980484144 -63.8237253456 292
93.4391505995 -65.0355682319 289
95.1802527845 -66.2474111183 286
97.5017223646 -67.8632016333 283
99.2428245497 -69.0750445196 280
100.983926735 -70.286887406 277
101.56429413 -70.6908350347 274
105.0464985 -73.1145208073 271
106.787600685 -74.3263636937 268
107.948335475 -75.1342589512 265
107.948335475 -75.1342589512 262
109.109070265 -75.9421542087 259
110.269805055 -76.7500494663 256
112.01090724 -77.9618923526 253
112.591274635 -78.3658399814 250
113.17164203 -78.7697876101 247
113.752009425 -79.1737352389 244
114.912744215 -79.9816304964 241
114.912744215 -79.9816304964 238
114.912744215 -79.9816304964 235
115.493111611 -80.3855781252 232
115.493111611 -80.3855781252 229
114.912744215 -79.9816304964 226
114.912744215 -79.9816304964 223
114.912744215 -79.9816304964 220
115.493111611 -80.3855781252 217
116.073479006 -80.789525754 214
116.073479006 -80.789525754 211
115.493111611 -80.3855781252 208
115.493111611 -80.3855781252 205
114.33237682 -79.5776828677 199
113.752009425 -79.1737352389 193
54.5545351326 -37.9710771044 148
53.9741677376 -37.5671294756 145
53.9741677376 -37.5671294756 142
52.2330655525 -36.3552865893 139
52.2330655525 -36.3552865893 136
68.4833526133 -47.6658201948 133
91.6980484144 -63.8237253456 130
95.7606201796 -66.651358747 127
99.8231919448 -69.4789921484 124
103.88576371 -72.3066255498 121
107.36796808 -74.7303113224 118
107.948335475 -75.1342589512 115
108.52870287 -75.53820658 112
108.52870287 -75.53820658 109
109.68943766 -76.3461018375 106
111.430539845 -77.5579447238 103
114.33237682 -79.5776828677 100
114.912744215 -79.9816304964 97
115.493111611 -80.3855781252 94
116.073479006 -80.789525754 91
116.073479006 -80.789525754 88
116.073479006 -80.789525754 85
116.653846401 -81.1934733827 82
117.234213796 -81.5974210115 79
-92.1758112948 61.8718014296 370
-92.1758112948 61.8718014296 367
-91.5887042165 61.4777135224 364
-91.5887042165 61.4777135224 361
-91.0015971382 61.0836256152 358
-89.8273829816 60.2954498008 355
-89.8273829816 60.2954498008 352
-89.8273829816 60.2954498008 349
-89.8273829816 60.2954498008 346
-89.8273829816 60.2954498008 343
-89.8273829816 60.2954498008 340
-89.2402759032 59.9013618936 337
-88.6531688249 59.5072739864 334
-88.0660617466 59.1131860793 331
-87.4789546683 58.7190981721 328
-86.89184759 58.3250102649 325
-86.89184759 58.3250102649 322
-86.3047405117 57.9309223577 319
-85.7176334334 57.5368344505 316
-85.1305263551 57.1427465433 313
74.5625989455 -50.0491642138 310
79.259455572 -53.2018674713 307
81.6078838852 -54.7782191001 304
84.5434192768 -56.7486586361 301
88.0660617466 -59.1131860793 298
89.8273829816 -60.2954498008 295
92.7629183731 -62.2658893368 292
93.9371325297 -63.0540651512 289
96.285560843 -64.63041678 286
98.6339891562 -66.2067684088 283
99.8082033128 -66.9949442232 280
102.156631626 -68.5712958519 277
104.505059939 -70.1476474807 274
106.853488253 -71.7239991095 271
108.027702409 -72.5121749239 268
109.201916566 -73.3003507383 265
109.789023644 -73.6944386455 262
110.376130722 -74.0885265527 259
110.963237801 -74.4826144599 256
111.550344879 -74.8767023671 253
112.137451957 -75.2707902742 250
113.311666114 -76.0589660886 247
113.311666114 -76.0589660886 244
114.485880271 -76.847141903 241
114.485880271 -76.847141903 238
115.660094427 -77.6353177174 235
115.660094427 -77.6353177174 232
116.247201506 -78.0294056246 229
116.247201506 -78.0294056246 226
115.660094427 -77.6353177174 223
115.660094427 -77.6353177174 220
116.834308584 -78.4234935318 217
116.247201506 -78.0294056246 214
116.834308584 -78.4234935318 211
116.247201506 -78.0294056246 208
115.660094427 -77.6353177174 202
115.072987349 -77.2412298102 199
115.072987349 -77.2412298102 196
113.898773192 -76.4530539958 190
112.724559036 -75.6648781814 184
54.0138512046 -36.2560874619 151
55.1880653612 -37.0442632763 148
54.6009582829 -36.6501753691 145
52.839637048 -35.4679116476 142
52.839637048 -35.4679116476 139
52.2525299697 -35.0738237404 136
68.6915281624 -46.1082851418 133
92.1758112948 -61.8718014296 130
96.285560843 -64.63041678 127
100.982417469 -67.7831200375 124
105.679274096 -70.9358232951 121
108.614809487 -72.9062628311 118
109.201916566 -73.3003507383 115
109.789023644 -73.6944386455 112
109.789023644 -73.6944386455 109
110.376130722 -74.0885265527 106
112.724559036 -75.6648781814 103
115.660094427 -77.6353177174 100
116.247201506 -78.0294056246 97
116.247201506 -78.0294056246 94
117.421415662 -78.817581439 91
117.421415662 -78.817581439 88
117.421415662 -78.817581439 85
118.00852274 -79.2116693462 82
112.724559036 -75.6648781814 79
112.137451957 -75.2707902742 76
112.137451957 -75.2707902742 73
112.137451957 -75.2707902742 70
112.137451957 -75.2707902742 67
-93.2076461267 60.3061746716 370
-93.2076461267 60.3061746716 367
-93.2076461267 60.3061746716 364
-92.613966852 59.9220589094 361
-92.0202875773 59.5379431471 358
-90.8329290279 58.7697116226 355
-90.8329290279 58.7697116226 352
-90.8329290279 58.7697116226 349
-90.8329290279 58.7697116226 346
-90.8329290279 58.7697116226 343
-90.2392497532 58.3855958604 340
-90.2392497532 58.3855958604 337
-89.6455704785 58.0014800982 334
-89.0518912038 57.6173643359 331
-88.4582119291 57.2332485737 328
-87.8645326545 56.8491328114 325
-87.8645326545 56.8491328114 322
-87.2708533798 56.4650170492 319
-86.6771741051 56.080901287 316
-86.6771741051 56.080901287 313
74.2099093365 -48.0144702799 310
78.9593435341 -51.0873963779 307
81.9277399075 -53.0079751891 304
85.4898155557 -55.3126697625 301
88.4582119291 -57.2332485737 298
90.2392497532 -58.3855958604 295
93.2076461267 -60.3061746716 292
94.9886839508 -61.4585219583 289
97.3634010495 -62.9949850073 286
98.5507595989 -63.7632165318 283
102.706514522 -66.4520268674 280
103.893873071 -67.2202583919 277
106.26859017 -68.7567214409 274
106.26859017 -68.7567214409 271
107.455948719 -69.5249529654 268
108.643307269 -70.2931844898 265
109.236986543 -70.6773002521 262
109.830665818 -71.0614160143 259
111.018024367 -71.8296475388 256
111.611703642 -72.213763301 253
112.799062192 -72.9819948255 250
113.392741466 -73.3661105877 247
113.986420741 -73.75022635 244
113.986420741 -73.75022635 241
115.17377929 -74.5184578745 238
115.17377929 -74.5184578745 235
115.767458565 -74.9025736367 232
116.36113784 -75.2866893989 229
116.36113784 -75.2866893989 226
115.767458565 -74.9025736367 223
116.36113784 -75.2866893989 220
117.548496389 -76.0549209234 217
116.954817114 -75.6708051612 214
116.954817114 -75.6708051612 211
116.36113784 -75.2866893989 208
116.36113784 -75.2866893989 205
112.799062192 -72.9819948255 184
54.6184932717 -35.338650126 148
54.024813997 -34.9545343638 145
52.8374554476 -34.1863028393 142
52.8374554476 -34.1863028393 139
51.6500968982 -33.4180713148 136
69.460475139 -44.941544182 133
92.0202875773 -59.5379431471 130
97.3634010495 -62.9949850073 127
102.112835247 -66.0679111052 124
106.862269445 -69.1408372031 121
109.830665818 -71.0614160143 118
110.424345093 -71.4455317766 115
110.424345093 -71.4455317766 112
111.018024367 -71.8296475388 109
112.205382917 -72.5978790633 106
113.392741466 -73.3661105877 103
116.36113784 -75.2866893989 100
117.548496389 -76.0549209234 97
117.548496389 -76.0549209234 94
118.735854938 -76.8231524479 91
118.735854938 -76.8231524479 88
118.735854938 -76.8231524479 85
118.735854938 -76.8231524479 82
113.986420741 -73.75022635 79
113.986420741 -73.75022635 76
113.392741466 -73.3661105877 73
113.392741466 -73.3661105877 70
113.392741466 -73.3661105877 67
-94.8129732678 59.0973781155 370
-94.2128911585 58.7233440768 367
-94.2128911585 58.7233440768 364
-93.0127269399 57.9752759994 361
-93.0127269399 57.9752759994 358
-91.8125627213 57.227207922 355
-91.8125627213 57.227207922 352
-91.8125627213 57.227207922 349
-91.8125627213 57.227207922 346
-91.8125627213 57.227207922 343
-91.8125627213 57.227207922 340
-90.6123985027 56.4791398446 337
-90.6123985027 56.4791398446 334
-90.0123163934 56.1051058059 331
-89.4122342841 55.7310717672 328
-88.8121521749 55.3570377285 325
-88.2120700656 54.9830036898 322
-88.2120700656 54.9830036898 319
-88.2120700656 54.9830036898 316
-87.6119879563 54.6089696511 313
73.2100173333 -45.6321527221 310
77.4105920984 -48.2503909931 307
81.6111668634 -50.868629264 304
85.2116595191 -53.1128334962 301
87.6119879563 -54.6089696511 298
90.0123163934 -56.1051058059 295
91.8125627213 -57.227207922 292
94.8129732678 -59.0973781155 289
99.0135480328 -61.7156163865 286
100.213712251 -62.4636844639 283
102.614040689 -63.9598206187 280
103.214122798 -64.3338546574 277
104.414287016 -65.0819227348 274
105.014369126 -65.4559567735 271
106.214533344 -66.2040248509 268
107.414697563 -66.9520929283 265
108.014779672 -67.326126967 262
109.214943891 -68.0741950445 259
109.815026 -68.4482290832 256
110.415108109 -68.8222631219 253
110.415108109 -68.8222631219 250
111.615272328 -69.5703311993 247
112.815436546 -70.3183992767 244
113.415518656 -70.6924333154 241
114.015600765 -71.0664673541 238
114.615682874 -71.4405013928 235
114.615682874 -71.4405013928 232
114.615682874 -71.4405013928 229
114.615682874 -71.4405013928 226
114.615682874 -71.4405013928 223
117.016011311 -72.9366375476 220
116.415929202 -72.5626035089 214
115.815847093 -72.1885694702 205
53.4073077268 -33.2890294448 151
52.8072256175 -32.9149954061 148
52.8072256175 -32.9149954061 145
52.2071435082 -32.5409613674 142
52.2071435082 -32.5409613674 139
51.0069792896 -31.79289329 136
50.4068971803 -31.4188592513 133
49.2067329617 -30.6707911739 130
96.0131374863 -59.8454461929 127
103.814204907 -64.7078886961 124
108.014779672 -67.326126967 121
111.015190219 -69.1962971606 118
111.615272328 -69.5703311993 115
112.215354437 -69.944365238 112
112.215354437 -69.944365238 109
113.415518656 -70.6924333154 106
115.215764984 -71.8145354315 103
118.21617553 -73.684705625 100
118.21617553 -73.684705625 97
120.016421858 -74.8068077412 94
120.016421858 -74.8068077412 91
120.016421858 -74.8068077412 88
120.016421858 -74.8068077412 85
120.016421858 -74.8068077412 82
114.615682874 -71.4405013928 79
115.215764984 -71.8145354315 76
115.215764984 -71.8145354315 73
115.215764984 -71.8145354315 70
115.215764984 -71.8145354315 67
-95.191259619 57.1237611871 370
-95.191259619 57.1237611871 367
-94.5849458634 56.7599155744 364
-94.5849458634 56.7599155744 361
-93.9786321079 56.3960699617 358
-92.7660045968 55.6683787364 355
-92.7660045968 55.6683787364 352
-92.7660045968 55.6683787364 349
-92.7660045968 55.6683787364 346
-92.7660045968 55.6683787364 343
-92.7660045968 55.6683787364 340
-92.1596908413 55.3045331238 337
-91.5533770858 54.9406875111 334
-90.9470633302 54.5768418985 331
-90.3407495747 54.2129962858 328
-89.7344358191 53.8491506731 325
-89.7344358191 53.8491506731 322
-89.1281220636 53.4853050605 319
-88.5218083081 53.1214594478 316
-88.5218083081 53.1214594478 313
73.3639644197 -44.0253191314 310
78.214474464 -46.9360840327 307
81.8523569972 -49.1191577086 304
84.8839257749 -50.9383857719 301
87.309180797 -52.3937682225 298
90.3407495747 -54.2129962858 295
92.7660045968 -55.6683787364 292
96.40388713 -57.8514524124 289
98.8291421522 -59.306834863 286
100.041769663 -60.0345260883 283
101.254397174 -60.7622173136 280
101.86071093 -61.1260629263 277
103.679652196 -62.2175997642 274
104.892279708 -62.9452909896 271
106.104907219 -63.6729822149 268
106.711220974 -64.0368278275 265
107.923848485 -64.7645190528 262
109.136475996 -65.4922102782 259
110.349103507 -66.2199015035 256
110.349103507 -66.2199015035 253
110.955417263 -66.5837471161 250
111.561731018 -66.9475927288 247
111.561731018 -66.9475927288 244
112.774358529 -67.6752839541 241
112.774358529 -67.6752839541 238
113.380672285 -68.0391295667 235
113.986986041 -68.4029751794 232
114.593299796 -68.7668207921 229
113.986986041 -68.4029751794 226
114.593299796 -68.7668207921 223
65.4818855978 -39.2953261669 217
54.5682379981 -32.7461051391 157
52.7492967315 -31.6545683011 148
52.7492967315 -31.6545683011 145
52.142982976 -31.2907226885 142
51.5366692205 -30.9268770758 139
50.9303554649 -30.5630314631 136
49.7177279539 -29.8353402378 133
49.1114141983 -29.4714946252 130
96.40388713 -57.8514524124 127
104.892279708 -62.9452909896 124
109.136475996 -65.4922102782 121
112.168044774 -67.3114383414 118
112.774358529 -67.6752839541 115
113.380672285 -68.0391295667 112
113.380672285 -68.0391295667 109
113.986986041 -68.4029751794 106
116.412241063 -69.85835763 103
119.44380984 -71.6775856933 100
120.050123596 -72.041431306 97
121.262751107 -72.7691225313 94
121.262751107 -72.7691225313 91
121.262751107 -72.7691225313 88
121.262751107 -72.7691225313 85
121.262751107 -72.7691225313 82
118.837496085 -71.3137400807 79
117.624868574 -70.5860488553 76
118.231182329 -70.949894468 73
118.231182329 -70.949894468 70
118.837496085 -71.3137400807 67
-96.1424724042 55.5078823231 370
-96.1424724042 55.5078823231 367
-96.1424724042 55.5078823231 364
-94.9177275328 54.800775542 361
-94.9177275328 54.800775542 358
-94.3053550972 54.4472221514 355
-93.6929826615 54.0936687608 352
-93.6929826615 54.0936687608 349
-93.6929826615 54.0936687608 346
-93.6929826615 54.0936687608 343
-93.0806102258 53.7401153702 340
-93.0806102258 53.7401153702 337
-92.4682377901 53.3865619796 334
-91.8558653544 53.033008589 331
-91.2434929187 52.6794551984 328
-91.2434929187 52.6794551984 325
-90.0187480473 51.9723484172 322
-90.0187480473 51.9723484172 319
-89.4063756116 51.6187950266 316
-89.4063756116 51.6187950266 313
74.0970647192 -42.7799602618 310
78.3836717691 -45.2548339959 307
82.6702788189 -47.7297077301 304
84.507396126 -48.7903679019 301
87.5692583045 -50.5581348548 298
90.0187480473 -51.9723484172 295
94.3053550972 -54.4472221514 292
96.7548448399 -55.8614357137 289
98.591962147 -56.9220958855 286
99.2043345827 -57.2756492761 283
101.04145189 -58.3363094479 280
102.266196761 -59.0434162291 277
102.878569197 -59.3969696197 274
104.715686504 -60.4576297914 271
105.32805894 -60.811183182 268
107.165176247 -61.8718433538 265
107.165176247 -61.8718433538 262
107.777548682 -62.2253967444 259
109.002293554 -62.9325035256 256
110.227038425 -63.6396103068 253
110.839410861 -63.9931636974 250
111.451783297 -64.346717088 247
111.451783297 -64.346717088 244
112.064155732 -64.7002704786 241
112.064155732 -64.7002704786 238
113.288900604 -65.4073772598 235
113.288900604 -65.4073772598 232
113.288900604 -65.4073772598 229
113.901273039 -65.7609306503 226
53.8887743412 -31.1126983722 157
54.5011467769 -31.4662517628 154
53.2764019055 -30.7591449816 148
52.6640294698 -30.405591591 145
52.0516570341 -30.0520382004 142
51.4392845984 -29.6984848098 139
50.2145397271 -28.9913780286 136
50.2145397271 -28.9913780286 133
92.4682377901 -53.3865619796 130
96.1424724042 -55.5078823231 127
105.940431375 -61.1647365726 124
110.227038425 -63.6396103068 121
113.288900604 -65.4073772598 118
113.288900604 -65.4073772598 115
113.901273039 -65.7609306503 112
114.513645475 -66.1144840409 109
115.126017911 -66.4680374315 106
117.575507654 -67.8822509939 103
120.637369832 -69.6500179469 100
121.249742268 -70.0035713375 97
121.862114703 -70.3571247281 94
122.474487139 -70.7106781187 91
122.474487139 -70.7106781187 88
122.474487139 -70.7106781187 85
122.474487139 -70.7106781187 82
123.086859575 -71.0642315092 79
123.086859575 -71.0642315092 76
123.086859575 -71.0642315092 73
123.086859575 -71.0642315092 70
122.474487139 -70.7106781187 67
-97.0662581572 53.8761684547 370
-97.0662581572 53.8761684547 367
-96.4480017358 53.5330081461 364
-96.4480017358 53.5330081461 361
-95.8297453144 53.1898478375 358
-94.5932324717 52.5035272202 355
-94.5932324717 52.5035272202 352
-94.5932324717 52.5035272202 349
-94.5932324717 52.5035272202 346
-94.5932324717 52.5035272202 343
-93.9749760503 52.1603669116 340
-93.9749760503 52.1603669116 337
-93.3567196289 51.817206603 334
-92.7384632075 51.4740462943 331
-92.1202067861 51.1308859857 328
-92.1202067861 51.1308859857 325
-90.8836939434 50.4445653684 322
-90.8836939434 50.4445653684 319
-90.265437522 50.1014050598 316
-89.6471811006 49.7582447512 313
77.9003090943 -43.2381988872 307
82.228104044 -45.6403210476 304
84.7011297295 -47.0129622822 301
88.4106682578 -49.0719241339 298
90.8836939434 -50.4445653684 295
95.211488893 -52.8466875288 292
95.8297453144 -53.1898478375 289
97.6845145786 -54.2193287634 286
98.9210274213 -54.9056493806 283
100.775796685 -55.9351303065 280
102.012309528 -56.6214509238 277
103.248822371 -57.307771541 274
103.867078792 -57.6509318496 271
105.103591635 -58.3372524669 268
106.340104478 -59.0235730842 265
107.576617321 -59.7098937014 262
108.194873742 -60.0530540101 259
108.813130163 -60.3962143187 256
109.431386585 -60.7393746273 253
110.049643006 -61.0825349359 250
111.286155849 -61.7688555532 247
111.286155849 -61.7688555532 244
112.522668692 -62.4551761705 241
113.140925113 -62.7983364791 238
112.522668692 -62.4551761705 235
113.140925113 -62.7983364791 232
112.522668692 -62.4551761705 229
54.4065650817 -30.1981071593 157
54.4065650817 -30.1981071593 154
53.170052239 -29.5117865421 151
53.7883086604 -29.8549468507 148
53.170052239 -29.5117865421 145
52.5517958176 -29.1686262335 142
68.6264627736 -38.0907942578 139
50.0787701321 -27.7959849989 136
50.0787701321 -27.7959849989 133
48.8422572893 -27.1096643817 130
97.0662581572 -53.8761684547 127
105.721848057 -58.6804127755 124
110.049643006 -61.0825349359 121
114.377437956 -63.4846570963 118
115.613950799 -64.1709777136 115
114.995694377 -63.827817405 112
115.613950799 -64.1709777136 109
116.23220722 -64.5141380222 106
118.705232906 -65.8867792567 103
121.796515013 -67.6025807999 100
122.414771434 -67.9457411085 97
123.033027855 -68.2889014171 94
123.651284277 -68.6320617258 91
124.269540698 -68.9752220344 85
124.269540698 -68.9752220344 82
123.651284277 -68.6320617258 79
124.269540698 -68.9752220344 76
124.269540698 -68.9752220344 73
124.887797119 -69.318382343 70
123.651284277 -68.6320617258 67
-97.9623533449 52.2290850688 370
-97.9623533449 52.2290850688 367
-97.9623533449 52.2290850688 364
-96.7144252768 51.5637464055 361
-96.7144252768 51.5637464055 358
-95.4664972088 50.8984077422 355
-95.4664972088 50.8984077422 352
-95.4664972088 50.8984077422 349
-95.4664972088 50.8984077422 346
-95.4664972088 50.8984077422 343
-94.8425331747 50.5657384106 340
-94.8425331747 50.5657384106 337
-94.2185691407 50.2330690789 334
-93.5946051066 49.9003997473 331
-92.9706410726 49.5677304156 328
-92.3466770385 49.235061084 325
-92.3466770385 49.235061084 322
-91.7227130045 48.9023917523 319
-91.0987489704 48.5697224207 316
-90.4747849364 48.237053089 313
77.9955042555 -41.583666456 307
81.7392884598 -43.5796824459 304
84.235144596 -44.9103597725 301
87.9789288002 -46.9063757624 298
92.3466770385 -49.235061084 295
93.5946051066 -49.9003997473 292
94.8425331747 -50.5657384106 289
96.7144252768 -51.5637464055 286
99.210281413 -52.8944237321 283
99.210281413 -52.8944237321 280
100.458209481 -53.5597623954 277
102.330101583 -54.5577703903 274
103.578029651 -55.2231090536 271
104.201993685 -55.5557783853 268
104.825957719 -55.8884477169 265
106.073885788 -56.5537863802 262
107.321813856 -57.2191250435 259
107.94577789 -57.5517943752 256
108.569741924 -57.8844637068 253
109.193705958 -58.2171330385 250
109.817669992 -58.5498023701 247
110.441634026 -58.8824717018 244
110.441634026 -58.8824717018 241
111.06559806 -59.2151410334 238
111.689562094 -59.5478103651 235
112.937490162 -60.2131490284 232
54.2848709618 -28.9422318534 157
54.2848709618 -28.9422318534 154
53.6609069278 -28.6095625218 151
53.6609069278 -28.6095625218 148
52.4129788597 -27.9442238585 145
51.7890148257 -27.6115545268 142
51.1650507916 -27.2788851952 139
49.2931586895 -26.2808772002 136
49.2931586895 -26.2808772002 133
94.2185691407 -50.2330690789 130
99.210281413 -52.8944237321 127
106.697849822 -56.8864557119 124
109.193705958 -58.2171330385 121
110.441634026 -58.8824717018 118
112.937490162 -60.2131490284 115
114.18541823 -60.8784876917 112
114.809382264 -61.2111570233 109
116.057310332 -61.8764956866 106
117.3052384 -62.5418343499 103
117.929202434 -62.8745036815 100
122.296950673 -65.2031890031 85
123.544878741 -65.8685276664 82
124.792806809 -66.5338663297 79
125.416770843 -66.8665356613 76
125.416770843 -66.8665356613 73
125.416770843 -66.8665356613 70
124.792806809 -66.5338663297 67
-98.830502334 50.5671020369 370
-98.830502334 50.5671020369 367
-98.2010086886 50.2450185844 364
-98.2010086886 50.2450185844 361
-97.5715150431 49.9229351319 358
-96.3125277523 49.278768227 355
-96.3125277523 49.278768227 352
-96.3125277523 49.278768227 349
-96.3125277523 49.278768227 346
-96.3125277523 49.278768227 343
-95.6830341068 48.9566847745 340
-95.6830341068 48.9566847745 337
-95.0535404614 48.6346013221 334
-94.4240468159 48.3125178696 331
-93.7945531705 47.9904344171 328
-93.7945531705 47.9904344171 325
-92.5355658796 47.3462675122 322
-92.5355658796 47.3462675122 319
-91.9060722342 47.0241840598 316
-91.2765785887 46.7021006073 313
-90.6470849433 46.3800171548 310
77.4277183891 -39.6162646531 307
80.5751866163 -41.2266819154 304
84.3521484889 -43.1591826302 301
88.758604007 -45.4137667974 298
91.2765785887 -46.7021006073 295
92.5355658796 -47.3462675122 292
94.4240468159 -48.3125178696 289
95.0535404614 -48.6346013221 286
96.9420213977 -49.6008516795 283
98.830502334 -50.5671020369 280
100.089489625 -51.2112689418 277
100.71898327 -51.5333523943 274
101.977970561 -52.1775192992 271
103.236957852 -52.8216862041 268
104.495945143 -53.465853109 265
104.495945143 -53.465853109 262
105.754932434 -54.110020014 259
105.754932434 -54.110020014 256
107.013919725 -54.7541869189 253
107.64341337 -55.0762703714 250
108.272907016 -55.3983538238 247
109.531894306 -56.0425207287 244
109.531894306 -56.0425207287 241
110.790881597 -56.6866876337 238
109.531894306 -56.0425207287 235
54.7659471532 -28.0212603644 157
54.7659471532 -28.0212603644 154
54.1364535078 -27.6991769119 151
54.1364535078 -27.6991769119 148
52.2479725715 -26.7329265545 145
50.9889852806 -26.0887596496 142
50.3594916352 -25.7666761971 139
90.0175912979 -46.0579337024 136
91.2765785887 -46.7021006073 133
95.0535404614 -48.6346013221 130
99.4599959795 -50.8891854893 127
107.64341337 -55.0762703714 124
110.161387952 -56.3646041812 121
111.420375243 -57.0087710861 118
112.679362534 -57.6529379911 115
115.197337115 -58.9412718009 112
115.826830761 -59.2633552534 109
117.715311697 -60.2296056108 106
117.715311697 -60.2296056108 103
118.344805343 -60.5516890632 100
119.603792634 -61.1958559682 97
119.603792634 -61.1958559682 94
119.603792634 -61.1958559682 91
121.49227357 -62.1621063256 88
122.121767215 -62.484189778 85
123.380754506 -63.128356683 82
125.898729088 -64.4166904928 79
125.898729088 -64.4166904928 76
125.898729088 -64.4166904928 73
126.528222733 -64.7387739453 70
125.898729088 -64.4166904928 67
-99.6704574634 48.8906934809 370
-99.6704574634 48.8906934809 367
-99.0356137852 48.57928779 364
-99.0356137852 48.57928779 361
-98.4007701071 48.267882099 358
-97.765926429 47.956476408 355
-97.1310827509 47.6450707171 352
-97.1310827509 47.6450707171 349
-97.1310827509 47.6450707171 346
-97.1310827509 47.6450707171 343
-96.4962390728 47.3336650261 340
-96.4962390728 47.3336650261 337
-95.8613953947 47.0222593352 334
-95.2265517166 46.7108536442 331
-94.5917080385 46.3994479532 328
-94.5917080385 46.3994479532 325
-93.3220206822 45.7766365713 322
-93.3220206822 45.7766365713 319
-92.6871770041 45.4652308803 316
-92.052333326 45.1538251894 313
-92.052333326 45.1538251894 310
76.8160850514 -37.6800886063 307
81.8948344763 -40.171334134 304
85.7038965449 -42.0397682798 301
89.5129586136 -43.9082024255 298
91.4174896479 -44.8424194984 295
93.3220206822 -45.7766365713 292
95.2265517166 -46.7108536442 289
95.8613953947 -47.0222593352 286
97.1310827509 -47.6450707171 283
99.6704574634 -48.8906934809 280
100.94014482 -49.5135048628 277
101.574988498 -49.8249105538 274
102.844675854 -50.4477219357 271
104.11436321 -51.0705333177 268
105.384050566 -51.6933446996 265
105.384050566 -51.6933446996 262
106.018894244 -52.0047503905 259
106.653737923 -52.3161560815 256
106.653737923 -52.3161560815 253
107.923425279 -52.9389674634 250
109.827956313 -53.8731845363 247
109.827956313 -53.8731845363 244
110.462799991 -54.1845902273 241
110.462799991 -54.1845902273 238
54.5965563175 -26.7808894227 157
55.2313999956 -27.0922951136 154
53.9617126394 -26.4694837317 151
54.5965563175 -26.7808894227 148
52.6920252832 -25.8466723498 145
51.422337927 -25.2238609679 142
50.7874942488 -24.9124552769 139
49.5178068926 -24.289643895 136
48.2481195364 -23.6668325131 133
95.8613953947 -47.0222593352 130
99.6704574634 -48.8906934809 127
108.558268957 -53.2503731544 124
111.097643669 -54.4959959182 121
112.367331026 -55.1188073001 118
114.27186206 -56.053024373 115
116.176393094 -56.9872414459 112
116.811236772 -57.2986471369 109
118.715767807 -58.2328642098 106
119.350611485 -58.5442699007 103
119.985455163 -58.8556755917 100
119.985455163 -58.8556755917 97
120.620298841 -59.1670812826 94
121.255142519 -59.4784869736 91
121.889986197 -59.7898926646 88
123.159673553 -60.4127040465 85
124.42936091 -61.0355154284 82
126.968735622 -62.2811381923 79
126.968735622 -62.2811381923 76
126.968735622 -62.2811381923 73
127.6035793 -62.5925438832 70
126.968735622 -62.2811381923 67
-100.481979115 47.2003376382 370
-100.481979115 47.2003376382 367
-99.841966509 46.899698545 364
-100.481979115 47.2003376382 361
-99.2019539032 46.5990594518 358
-98.5619412974 46.2984203585 355
-97.9219286915 45.9977812653 352
-97.9219286915 45.9977812653 349
-97.9219286915 45.9977812653 346
-97.9219286915 45.9977812653 343
-97.2819160857 45.6971421721 340
-97.2819160857 45.6971421721 337
-96.6419034799 45.3965030788 334
-96.0018908741 45.0958639856 331
-95.3618782682 44.7952248923 328
-95.3618782682 44.7952248923 325
-94.0818530566 44.1939467059 322
-94.0818530566 44.1939467059 319
-92.8018278449 43.5926685194 316
-92.8018278449 43.5926685194 313
-92.1618152391 43.2920294262 310
76.8015126992 -36.0766911885 307
81.28160094 -38.1811648411 304
84.4816639692 -39.6843603073 301
88.3217396041 -41.4881948667 298
90.2417774216 -42.3901121464 295
91.5218026333 -42.9913903329 292
93.4418404507 -43.8933076126 289
95.3618782682 -44.7952248923 286
96.6419034799 -45.3965030788 283
97.2819160857 -45.6971421721 280
98.5619412974 -46.2984203585 277
100.481979115 -47.2003376382 274
101.762004326 -47.8016158247 271
101.762004326 -47.8016158247 268
102.402016932 -48.102254918 265
104.32205475 -49.0041721977 262
104.32205475 -49.0041721977 259
105.602079961 -49.6054503841 256
106.882105173 -50.2067285706 253
107.522117779 -50.5073676639 250
108.162130385 -50.8080067571 247
108.802142991 -51.1086458503 244
109.442155596 -51.4092849436 241
53.7610588895 -25.2536838319 157
53.7610588895 -25.2536838319 154
53.1210462836 -24.9530447387 151
52.4810336778 -24.6524056455 148
51.2010084662 -24.051127459 145
49.9209832545 -23.4498492725 142
90.8817900274 -42.6907512397 139
89.6017648158 -42.0894730532 136
47.3609328312 -22.2472928996 133
96.0018908741 -45.0958639856 130
101.762004326 -47.8016158247 127
109.442155596 -51.4092849436 124
112.00220602 -52.6118413165 121
113.282231231 -53.213119503 118
115.202269049 -54.1150367827 115
117.122306866 -55.0169540624 112
117.762319472 -55.3175931557 109
119.042344684 -55.9188713421 106
119.68235729 -56.2195104354 103
120.962382501 -56.8207886218 100
120.962382501 -56.8207886218 97
120.962382501 -56.8207886218 94
121.602395107 -57.1214277151 91
122.882420319 -57.7227059015 88
122.882420319 -57.7227059015 85
124.802458136 -58.6246231813 82
128.002521165 -60.1278186474 79
128.002521165 -60.1278186474 76
128.642533771 -60.4284577407 73
128.642533771 -60.4284577407 70
128.002521165 -60.1278186474 67
-101.264835782 45.4965167249 370
-101.264835782 45.4965167249 367
-100.619836828 45.2067299942 364
-99.9748378737 44.9169432634 361
-99.9748378737 44.9169432634 358
-98.6848399656 44.337369802 355
-98.6848399656 44.337369802 352
-98.6848399656 44.337369802 349
-98.6848399656 44.337369802 346
-98.6848399656 44.337369802 343
-98.0398410116 44.0475830712 340
-98.0398410116 44.0475830712 337
-97.3948420576 43.7577963405 334
-96.7498431036 43.4680096098 331
-96.1048441495 43.178222879 328
-95.4598451955 42.8884361483 325
-94.8148462415 42.5986494176 322
-94.8148462415 42.5986494176 319
-94.8148462415 42.5986494176 316
-93.5248483335 42.0190759561 313
-92.8798493794 41.7292892254 310
80.624869253 -36.2233413415 304
85.1398619311 -38.2518484566 301
87.7198577472 -39.4109953795 298
89.6548546093 -40.2803555717 295
91.5898514714 -41.1497157639 292
92.2348504254 -41.4395024946 289
94.1698472875 -42.3088626868 286
96.1048441495 -43.178222879 283
97.3948420576 -43.7577963405 280
98.0398410116 -44.0475830712 277
99.3298389197 -44.6271565327 274
101.264835782 -45.4965167249 271
101.909834736 -45.7863034556 268
102.55483369 -46.0760901863 265
103.844831598 -46.6556636478 262
103.199832644 -46.3658769171 259
104.489830552 -46.9454503785 256
105.77982846 -47.52502384 253
107.069826368 -48.1045973015 250
107.069826368 -48.1045973015 247
107.069826368 -48.1045973015 244
54.179912138 -24.3420853815 154
52.88991423 -23.76251192 151
52.2449152759 -23.4727251893 148
50.9549173679 -22.8931517278 145
49.6649194598 -22.3135782663 142
90.2998535633 -40.5701423024 139
89.0098556553 -39.990568841 136
96.1048441495 -43.178222879 133
96.7498431036 -43.4680096098 130
101.909834736 -45.7863034556 127
110.294821138 -49.5535309551 124
112.874816954 -50.7126778781 121
115.45481277 -51.871824801 118
116.744810678 -52.4513982624 115
118.034808586 -53.0309717239 112
118.67980754 -53.3207584546 109
120.614804402 -54.1901186468 106
121.259803356 -54.4799053776 103
121.904802311 -54.7696921083 100
122.549801265 -55.059478839 97
123.194800219 -55.3492655698 94
123.839799173 -55.6390523005 91
125.129797081 -56.218625762 88
125.129797081 -56.218625762 85
126.419794989 -56.7981992234 82
128.999790805 -57.9573461463 79
129.644789759 -58.2471328771 76
129.644789759 -58.2471328771 73
129.644789759 -58.2471328771 70
128.999790805 -57.9573461463 67
-102.018804135 43.7797167981 370
-102.018804135 43.7797167981 367
-101.369002834 43.5008650988 364
-101.369002834 43.5008650988 361
-100.719201534 43.2220133994 358
-100.069400234 42.9431617001 355
-99.4195989338 42.6643100007 352
-99.4195989338 42.6643100007 349
-99.4195989338 42.6643100007 346
-99.4195989338 42.6643100007 343
-98.7697976336 42.3854583014 340
-98.7697976336 42.3854583014 337
-98.1199963334 42.106606602 334
-97.4701950332 41.8277549027 331
-96.8203937329 41.5489032033 328
-96.1705924327 41.270051504 325
-96.1705924327 41.270051504 322
-95.5207911325 40.9911998046 319
-94.8709898323 40.7123481053 316
-94.221188532 40.4334964059 313
-93.5713872318 40.1546447066 310
81.2251625276 -34.8564624189 304
85.123970329 -36.529572615 301
87.7231755298 -37.6449794124 298
89.0227781303 -38.2026828111 295
91.6219833312 -39.3180896085 292
92.9215859316 -39.8757930072 289
94.8709898323 -40.7123481053 286
96.1705924327 -41.270051504 283
98.1199963334 -42.106606602 280
98.1199963334 -42.106606602 277
100.069400234 -42.9431617001 274
100.719201534 -43.2220133994 271
102.018804135 -43.7797167981 268
102.668605435 -44.0585684975 265
103.318406735 -44.3374201968 262
104.618009336 -44.8951235956 259
104.618009336 -44.8951235956 256
105.917611936 -45.4528269943 253
105.917611936 -45.4528269943 250
107.217214536 -46.010530393 247
53.9335079183 -23.1446910462 154
51.9841040177 -22.3081359481 151
51.9841040177 -22.3081359481 148
50.034700117 -21.47158085 145
91.6219833312 -39.3180896085 142
90.9721820309 -39.0392379092 139
90.3223807307 -38.7603862098 136
95.5207911325 -40.9911998046 133
97.4701950332 -41.8277549027 130
94.8709898323 -40.7123481053 127
111.765823638 -47.9624922884 124
115.664631439 -49.6356024845 121
117.61403534 -50.4721575826 118
118.91363794 -51.0298609813 115
119.563439241 -51.3087126806 112
120.213240541 -51.58756438 109
121.512843141 -52.1452677787 106
123.462247042 -52.9818228767 103
124.761849642 -53.5395262754 100
124.761849642 -53.5395262754 97
125.411650943 -53.8183779748 94
125.411650943 -53.8183779748 91
126.061452243 -54.0972296741 88
126.711253543 -54.3760813735 85
127.361054843 -54.6549330728 82
129.960260044 -55.7703398702 79
129.960260044 -55.7703398702 76
130.610061344 -56.0491915696 73
130.610061344 -56.0491915696 70
129.960260044 -55.7703398702 67
-102.743669085 42.0504276179 370
-102.743669085 42.0504276179 367
-102.089250811 41.7825904993 364
-102.089250811 41.7825904993 361
-101.434832537 41.5147533808 358
-100.780414262 41.2469162622 355
-100.125995988 40.9790791436 352
-100.125995988 40.9790791436 349
-100.125995988 40.9790791436 346
-100.125995988 40.9790791436 343
-99.4715777133 40.711242025 340
-99.4715777133 40.711242025 337
-98.8171594389 40.4434049064 334
-98.8171594389 40.4434049064 331
-97.5083228901 39.9077306692 328
-97.5083228901 39.9077306692 325
-96.1994863412 39.3720564321 322
-96.1994863412 39.3720564321 319
-95.5450680668 39.1042193135 316
-94.8906497923 38.8363821949 313
-94.8906497923 38.8363821949 310
75.2581015594 -30.8012686373 307
79.184611206 -32.4082913488 304
84.4199574015 -34.5509882975 301
86.3832122247 -35.3544996533 298
88.346467048 -36.158011009 295
89.6553035969 -36.6936852462 292
91.6185584202 -37.497196602 289
93.5818132435 -38.3007079577 286
94.2362315179 -38.5685450763 283
96.1994863412 -39.3720564321 280
97.5083228901 -39.9077306692 277
98.8171594389 -40.4434049064 274
99.4715777133 -40.711242025 271
100.780414262 -41.2469162622 268
101.434832537 -41.5147533808 265
102.743669085 -42.0504276179 262
102.743669085 -42.0504276179 259
104.052505634 -42.5861018551 256
104.706923909 -42.8539389737 253
105.361342183 -43.1217760923 250
50.3902071311 -20.6234581311 154
50.3902071311 -20.6234581311 151
48.4269523078 -19.8199467753 145
47.118115759 -19.2842725382 142
45.1548609357 -18.4807611824 139
44.5004426612 -18.2129240638 136
94.8906497923 -38.8363821949 133
98.8171594389 -40.4434049064 130
95.5450680668 -39.1042193135 127
113.214361476 -46.3358215153 124
117.795289397 -48.2106813454 121
121.06738077 -49.5498669383 118
121.721799044 -49.8177040569 115
122.376217318 -50.0855411755 112
122.376217318 -50.0855411755 109
123.685053867 -50.6212154127 106
126.957145239 -51.9604010056 103
128.920400063 -52.7639123613 100
129.574818337 -53.0317494799 97
130.229236612 -53.2995865985 94
130.883654886 -53.5674237171 91
130.883654886 -53.5674237171 88
130.883654886 -53.5674237171 85
131.53807316 -53.8352608357 82
131.53807316 -53.8352608357 79
-103.439223848 40.309142507 370
-103.439223848 40.309142507 367
-102.780375289 40.0523963764 364
-103.439223848 40.309142507 361
-102.121526729 39.7956502458 358
-101.46267817 39.5389041151 355
-100.80382961 39.2821579845 352
-100.80382961 39.2821579845 349
-100.80382961 39.2821579845 346
-100.80382961 39.2821579845 343
-100.144981051 39.0254118539 340
-100.144981051 39.0254118539 337
-99.4861324911 38.7686657233 334
-99.4861324911 38.7686657233 331
-98.168435372 38.255173462 328
-98.168435372 38.255173462 325
-96.8507382529 37.7416812008 322
-96.8507382529 37.7416812008 319
-96.1918896934 37.4849350702 316
-95.5330411338 37.2281889396 313
-94.8741925743 36.971442809 310
74.4498872284 -29.0123127598 307
79.0618271452 -30.8095356741 304
83.673767062 -32.6067585885 301
85.6503127407 -33.3769969803 298
87.6268584193 -34.1472353722 295
88.9445555384 -34.6607276334 292
91.5799497766 -35.6877121559 289
92.8976468957 -36.2012044171 286
94.2153440147 -36.7146966783 283
95.5330411338 -37.2281889396 280
96.8507382529 -37.7416812008 277
98.8272839316 -38.5119195927 274
99.4861324911 -38.7686657233 271
99.4861324911 -38.7686657233 268
100.80382961 -39.2821579845 265
101.46267817 -39.5389041151 262
102.121526729 -39.7956502458 259
102.780375289 -40.0523963764 256
103.439223848 -40.309142507 253
104.098072408 -40.5658886376 250
90.2622526575 -35.1742198946 142
88.9445555384 -34.6607276334 139
99.4861324911 -38.7686657233 130
108.051163765 -42.1063654213 127
113.321952242 -44.1603344663 124
118.592740718 -46.2143035112 121
121.886983516 -47.4980341643 118
121.886983516 -47.4980341643 115
123.204680635 -48.0115264255 112
123.204680635 -48.0115264255 109
124.522377754 -48.5250186868 106
127.816620551 -49.8087493398 103
129.79316623 -50.5789877317 100
130.45201479 -50.8357338623 97
131.110863349 -51.0924799929 94
131.769711909 -51.3492261236 91
131.769711909 -51.3492261236 88
131.769711909 -51.3492261236 85
132.428560468 -51.6059722542 82
133.087409028 -51.8627183848 79
-104.105269999 38.5563582102 370
-104.105269999 38.5563582102 367
-103.442179107 38.3107763108 364
-104.105269999 38.5563582102 361
-102.779088216 38.0651944114 358
-102.115997324 37.819612512 355
-101.452906432 37.5740306125 352
-101.452906432 37.5740306125 349
-101.452906432 37.5740306125 346
-101.452906432 37.5740306125 343
-100.78981554 37.3284487131 340
-100.78981554 37.3284487131 337
-100.126724649 37.0828668137 334
-99.463633757 36.8372849142 331
-98.8005428653 36.5917030148 328
-98.1374519736 36.3461211154 325
-97.4743610819 36.100539216 322
-97.4743610819 36.100539216 319
-96.8112701901 35.8549573165 316
-96.1481792984 35.6093754171 313
-95.4850884067 35.3637935177 310
74.2661798719 -27.505172736 307
78.9078161139 -29.224246032 304
83.5494523559 -30.943319328 301
84.8756341393 -31.4344831268 298
86.8649068144 -32.1712288251 295
89.5172703813 -33.1535564228 292
90.8434521647 -33.6447202217 289
92.8327248399 -34.38146592 286
94.821997515 -35.1182116182 283
95.4850884067 -35.3637935177 280
96.1481792984 -35.6093754171 277
97.4743610819 -36.100539216 274
98.8005428653 -36.5917030148 271
98.8005428653 -36.5917030148 268
100.126724649 -37.0828668137 265
100.78981554 -37.3284487131 262
101.452906432 -37.5740306125 259
102.115997324 -37.819612512 256
101.452906432 -37.5740306125 253
59.6781802542 -22.1023709485 151
59.0150893625 -21.8567890491 148
90.180361273 -33.3991383222 142
89.5172703813 -33.1535564228 139
39.7854535028 -14.7349139657 133
100.126724649 -37.0828668137 130
