-48.9902518953 119.700048591 342
-49.3125561841 120.487548911 340
-49.3125561841 120.487548911 338
-49.3125561841 120.487548911 336
-49.3125561841 120.487548911 334
-49.3125561841 120.487548911 332
-48.9902518953 119.700048591 330
-48.9902518953 119.700048591 328
-48.9902518953 119.700048591 326
-48.9902518953 119.700048591 324
-48.9902518953 119.700048591 322
-48.9902518953 119.700048591 320
-48.9902518953 119.700048591 318
-48.9902518953 119.700048591 316
-48.023339029 117.337547632 314
-48.023339029 117.337547632 312
-48.023339029 117.337547632 310
-48.023339029 117.337547632 308
-48.023339029 117.337547632 306
-48.023339029 117.337547632 304
-48.023339029 117.337547632 302
-48.023339029 117.337547632 300
-48.023339029 117.337547632 298
-48.023339029 117.337547632 296
-48.023339029 117.337547632 294
-48.023339029 117.337547632 292
-48.023339029 117.337547632 290
-47.7010347402 116.550047313 288
-47.7010347402 116.550047313 286
-47.7010347402 116.550047313 284
-47.3787304514 115.762546993 282
-47.3787304514 115.762546993 280
-47.3787304514 115.762546993 278
-47.3787304514 115.762546993 276
-47.3787304514 115.762546993 274
-47.3787304514 115.762546993 272
-47.3787304514 115.762546993 270
-47.3787304514 115.762546993 268
-46.7341218738 114.187546354 266
-46.7341218738 114.187546354 264
-46.7341218738 114.187546354 262
-46.7341218738 114.187546354 260
-46.7341218738 114.187546354 258
-46.4118175851 113.400046034 256
-46.4118175851 113.400046034 254
-46.4118175851 113.400046034 252
-46.4118175851 113.400046034 250
-46.4118175851 113.400046034 248
-46.4118175851 113.400046034 246
-46.0895132963 112.612545714 244
-46.0895132963 112.612545714 242
-46.0895132963 112.612545714 240
-46.0895132963 112.612545714 238
-46.0895132963 112.612545714 236
-45.4449047187 111.037545075 234
-45.4449047187 111.037545075 232
-45.4449047187 111.037545075 230
-45.4449047187 111.037545075 228
-45.4449047187 111.037545075 226
-45.1226004299 110.250044755 224
-45.1226004299 110.250044755 222
-45.1226004299 110.250044755 220
-44.8002961411 109.462544435 218
-44.8002961411 109.462544435 216
-44.8002961411 109.462544435 214
-44.8002961411 109.462544435 212
-44.8002961411 109.462544435 210
-43.8333832748 107.100043476 208
-43.8333832748 107.100043476 206
-43.8333832748 107.100043476 204
30.9412117234 -75.6000306892 200
30.9412117234 -75.6000306892 198
30.9412117234 -75.6000306892 196
30.9412117234 -75.6000306892 194
-16.437518728 40.1625163037 192
-18.3713444608 44.8875182217 190
-19.0159530383 46.4625188611 188
-19.0159530383 46.4625188611 186
-19.0159530383 46.4625188611 184
-18.3713444608 44.8875182217 182
35.7757760552 -87.4125354844 180
35.7757760552 -87.4125354844 178
36.4203846327 -88.9875361238 176
36.4203846327 -88.9875361238 174
36.4203846327 -88.9875361238 172
37.7096017879 -92.1375374025 170
37.7096017879 -92.1375374025 168
37.7096017879 -92.1375374025 166
38.6765146542 -94.5000383615 164
38.6765146542 -94.5000383615 162
38.998818943 -95.2875386812 160
39.6434275206 -96.8625393206 158
39.6434275206 -96.8625393206 156
40.9326446757 -100.012540599 154
40.9326446757 -100.012540599 152
40.9326446757 -100.012540599 150
32.5527331673 -79.5375322876 88
32.2304288785 -78.7500319679 86
33.1973417449 -81.112532927 84
34.4865589 -84.2625342057 82
36.4203846327 -88.9875361238 76
36.0980803439 -88.2000358041 74
37.0649932103 -90.5625367631 72
37.7096017879 -92.1375374025 70
40.2880360981 -98.4375399599 58
40.2880360981 -98.4375399599 56
40.2880360981 -98.4375399599 54
40.2880360981 -98.4375399599 52
40.2880360981 -98.4375399599 50
39.9657318094 -97.6500396403 48
39.9657318094 -97.6500396403 46
39.9657318094 -97.6500396403 44
38.998818943 -95.2875386812 42
38.6765146542 -94.5000383615 40
37.7096017879 -92.1375374025 38
37.7096017879 -92.1375374025 36
10.3137372411 -25.2000102297 4
12.8921715514 -31.5000127872 2
-53.6894059259 125.111110529 400
-53.6894059259 125.111110529 398
-53.6894059259 125.111110529 396
-52.3471707777 121.983332766 378
-52.3471707777 121.983332766 376
-52.3471707777 121.983332766 374
-52.6827295647 122.765277207 372
-52.6827295647 122.765277207 370
-52.6827295647 122.765277207 368
-52.6827295647 122.765277207 366
-52.6827295647 122.765277207 364
-52.6827295647 122.765277207 362
-52.6827295647 122.765277207 360
-52.6827295647 122.765277207 358
-52.0116119907 121.201388325 356
-52.0116119907 121.201388325 354
-51.0049356296 118.855555002 352
-51.0049356296 118.855555002 350
-51.0049356296 118.855555002 348
-51.0049356296 118.855555002 346
-51.0049356296 118.855555002 344
-51.0049356296 118.855555002 342
-51.3404944166 119.637499443 340
-51.3404944166 119.637499443 338
-51.3404944166 119.637499443 336
-51.3404944166 119.637499443 334
-51.3404944166 119.637499443 332
-51.0049356296 118.855555002 330
-51.0049356296 118.855555002 328
-51.0049356296 118.855555002 326
-51.0049356296 118.855555002 324
-51.0049356296 118.855555002 322
-51.0049356296 118.855555002 320
-51.0049356296 118.855555002 318
-51.0049356296 118.855555002 316
-49.9982592685 116.50972168 314
-49.9982592685 116.50972168 312
-49.9982592685 116.50972168 310
-49.9982592685 116.50972168 308
-49.9982592685 116.50972168 306
-49.9982592685 116.50972168 304
-49.9982592685 116.50972168 302
-49.9982592685 116.50972168 300
-49.9982592685 116.50972168 298
-49.9982592685 116.50972168 296
-49.9982592685 116.50972168 294
-49.9982592685 116.50972168 292
-49.9982592685 116.50972168 290
-49.6627004814 115.727777239 288
-49.6627004814 115.727777239 286
-49.6627004814 115.727777239 284
-49.3271416944 114.945832798 282
-49.3271416944 114.945832798 280
-49.3271416944 114.945832798 278
-49.3271416944 114.945832798 276
-49.3271416944 114.945832798 274
-49.3271416944 114.945832798 272
-49.3271416944 114.945832798 270
-49.3271416944 114.945832798 268
-48.6560241203 113.381943917 266
-48.6560241203 113.381943917 264
-48.6560241203 113.381943917 262
-48.6560241203 113.381943917 260
-48.6560241203 113.381943917 258
-48.3204653333 112.599999476 256
-48.3204653333 112.599999476 254
-48.3204653333 112.599999476 252
-48.3204653333 112.599999476 250
-48.3204653333 112.599999476 248
-48.3204653333 112.599999476 246
-47.9849065462 111.818055035 244
-47.9849065462 111.818055035 242
-47.3137889722 110.254166154 240
-47.3137889722 110.254166154 238
-47.3137889722 110.254166154 236
-47.3137889722 110.254166154 234
-47.3137889722 110.254166154 232
-47.3137889722 110.254166154 230
-47.3137889722 110.254166154 228
-47.3137889722 110.254166154 226
-46.6426713981 108.690277272 224
-46.6426713981 108.690277272 222
-46.6426713981 108.690277272 220
-46.6426713981 108.690277272 218
-46.6426713981 108.690277272 216
-46.6426713981 108.690277272 214
-46.6426713981 108.690277272 212
-46.6426713981 108.690277272 210
-45.635995037 106.34444395 208
-45.635995037 106.34444395 206
-45.635995037 106.34444395 204
30.8714084074 -71.9388885541 200
30.8714084074 -71.9388885541 198
31.2069671944 -72.7208329949 196
32.2136435555 -75.0666663174 194
-17.7846157129 41.4430553627 192
-19.4624096481 45.3527775667 190
-20.8046447963 48.48055533 188
-21.4757623703 50.0444442116 186
-21.4757623703 50.0444442116 184
-21.4757623703 50.0444442116 182
36.575907787 -85.2319440478 180
37.2470253611 -86.7958329294 178
37.5825841481 -87.5777773703 176
37.5825841481 -87.5777773703 174
37.5825841481 -87.5777773703 172
39.2603780833 -91.4874995743 170
39.2603780833 -91.4874995743 168
39.2603780833 -91.4874995743 166
39.2603780833 -91.4874995743 164
39.2603780833 -91.4874995743 162
40.2670544444 -93.8333328967 160
40.6026132314 -94.6152773375 158
41.2737308055 -96.1791662191 156
33.2203199166 -77.4124996398 90
32.2136435555 -75.0666663174 88
32.2136435555 -75.0666663174 86
33.5558787037 -78.1944440806 84
35.2336726388 -82.1041662846 82
37.2470253611 -86.7958329294 80
37.2470253611 -86.7958329294 78
37.2470253611 -86.7958329294 76
37.5825841481 -87.5777773703 74
37.5825841481 -87.5777773703 72
37.5825841481 -87.5777773703 70
39.2603780833 -91.4874995743 68
39.2603780833 -91.4874995743 66
40.2670544444 -93.8333328967 64
40.2670544444 -93.8333328967 62
40.2670544444 -93.8333328967 60
40.6026132314 -94.6152773375 58
40.6026132314 -94.6152773375 56
40.6026132314 -94.6152773375 54
41.2737308055 -96.1791662191 52
41.2737308055 -96.1791662191 50
41.2737308055 -96.1791662191 48
41.2737308055 -96.1791662191 46
41.2737308055 -96.1791662191 44
40.2670544444 -93.8333328967 42
39.9314956574 -93.0513884559 40
39.2603780833 -91.4874995743 38
39.2603780833 -91.4874995743 36
10.7378811852 -25.0222221058 4
12.4156751204 -28.9319443098 2
-55.7948094072 124.186478852 400
-55.7948094072 124.186478852 398
-55.7948094072 124.186478852 396
-54.7486567308 121.857982374 378
-54.7486567308 121.857982374 376
-54.7486567308 121.857982374 374
-54.7486567308 121.857982374 372
-54.7486567308 121.857982374 370
-54.7486567308 121.857982374 368
-54.7486567308 121.857982374 366
-54.7486567308 121.857982374 364
-54.7486567308 121.857982374 362
-54.7486567308 121.857982374 360
-54.7486567308 121.857982374 358
-54.0512216132 120.305651388 356
-54.0512216132 120.305651388 354
-53.0050689369 117.977154909 352
-53.0050689369 117.977154909 350
-53.0050689369 117.977154909 348
-53.0050689369 117.977154909 346
-53.0050689369 117.977154909 344
-53.0050689369 117.977154909 342
-53.0050689369 117.977154909 340
-53.0050689369 117.977154909 338
-53.3537864957 118.753320402 336
-53.3537864957 118.753320402 334
-53.3537864957 118.753320402 332
-53.0050689369 117.977154909 330
-53.0050689369 117.977154909 328
-53.0050689369 117.977154909 326
-53.0050689369 117.977154909 324
-53.0050689369 117.977154909 322
-53.0050689369 117.977154909 320
-53.0050689369 117.977154909 318
-53.0050689369 117.977154909 316
-51.9589162605 115.648658431 314
-51.9589162605 115.648658431 312
-51.9589162605 115.648658431 310
-51.9589162605 115.648658431 308
-51.9589162605 115.648658431 306
-51.9589162605 115.648658431 304
-51.9589162605 115.648658431 302
-51.9589162605 115.648658431 300
-51.9589162605 115.648658431 298
-51.9589162605 115.648658431 296
-51.9589162605 115.648658431 294
-51.9589162605 115.648658431 292
-51.9589162605 115.648658431 290
-51.2614811429 114.096327445 288
-51.2614811429 114.096327445 286
-51.2614811429 114.096327445 284
-51.2614811429 114.096327445 282
-51.2614811429 114.096327445 280
-51.2614811429 114.096327445 278
-51.2614811429 114.096327445 276
-51.2614811429 114.096327445 274
-51.2614811429 114.096327445 272
-51.2614811429 114.096327445 270
-51.2614811429 114.096327445 268
-50.5640460253 112.54399646 266
-50.5640460253 112.54399646 264
-50.5640460253 112.54399646 262
-50.5640460253 112.54399646 260
-50.5640460253 112.54399646 258
-50.2153284665 111.767830967 256
-50.2153284665 111.767830967 254
-50.2153284665 111.767830967 252
-50.2153284665 111.767830967 250
-50.2153284665 111.767830967 248
-50.2153284665 111.767830967 246
-49.8666109077 110.991665474 244
-49.8666109077 110.991665474 242
-49.1691757901 109.439334488 240
-49.1691757901 109.439334488 238
-49.1691757901 109.439334488 236
-49.1691757901 109.439334488 234
-49.1691757901 109.439334488 232
-49.1691757901 109.439334488 230
-49.1691757901 109.439334488 228
-49.1691757901 109.439334488 226
-48.8204582313 108.663168996 224
-48.8204582313 108.663168996 222
-48.8204582313 108.663168996 220
-48.4717406725 107.887003503 218
-48.4717406725 107.887003503 216
-48.4717406725 107.887003503 214
-48.4717406725 107.887003503 212
-48.4717406725 107.887003503 210
-47.7743055549 106.334672517 208
-47.7743055549 106.334672517 206
-47.7743055549 106.334672517 204
31.0358627328 -69.0787288614 200
30.687145174 -68.3025633686 198
31.7332978504 -70.6310598471 196
32.0820154092 -71.4072253399 194
-18.4820306161 41.1367711197 192
-21.2717710865 47.3460950623 190
-21.9692062041 48.898426048 188
-22.3179237629 49.6745915408 186
-21.9692062041 48.898426048 184
37.3127787911 -83.0497077323 182
37.3127787911 -83.0497077323 180
37.6614963499 -83.8258732251 178
38.7076490263 -86.1543697036 176
39.0563665851 -86.9305351964 174
39.4050841439 -87.7067006892 172
40.4512368202 -90.0351971677 170
40.4512368202 -90.0351971677 168
40.4512368202 -90.0351971677 166
40.799954379 -90.8113626605 164
40.799954379 -90.8113626605 162
42.1948246142 -93.9160246318 160
43.2409772906 -96.2445211103 158
16.3897252634 -36.4797781628 90
16.3897252634 -36.4797781628 88
16.3897252634 -36.4797781628 86
35.2204734383 -78.3927147753 84
37.3127787911 -83.0497077323 82
38.7076490263 -86.1543697036 80
38.7076490263 -86.1543697036 78
38.7076490263 -86.1543697036 76
39.4050841439 -87.7067006892 74
39.4050841439 -87.7067006892 72
39.4050841439 -87.7067006892 70
40.4512368202 -90.0351971677 68
40.4512368202 -90.0351971677 66
40.799954379 -90.8113626605 64
40.799954379 -90.8113626605 62
40.799954379 -90.8113626605 60
41.8461070554 -93.139859139 58
41.8461070554 -93.139859139 56
41.8461070554 -93.139859139 54
42.8922597318 -95.4683556175 52
42.8922597318 -95.4683556175 50
43.2409772906 -96.2445211103 48
43.2409772906 -96.2445211103 46
43.2409772906 -96.2445211103 44
41.4973894966 -92.3636936462 42
41.4973894966 -92.3636936462 40
41.4973894966 -92.3636936462 38
41.4973894966 -92.3636936462 36
11.1589618814 -24.8372957704 4
11.1589618814 -24.8372957704 2
-56.4371886302 120.145759395 378
-56.4371886302 120.145759395 376
-56.4371886302 120.145759395 374
-56.7989654804 120.915924519 368
-56.7989654804 120.915924519 366
-56.7989654804 120.915924519 364
-56.4371886302 120.145759395 362
-56.4371886302 120.145759395 360
-56.4371886302 120.145759395 358
-56.07541178 119.375594271 356
-56.07541178 119.375594271 354
-56.07541178 119.375594271 352
-56.07541178 119.375594271 350
-56.07541178 119.375594271 348
-54.9900812294 117.065098898 346
-54.9900812294 117.065098898 344
-54.9900812294 117.065098898 342
-55.3518580796 117.835264022 340
-55.3518580796 117.835264022 338
-55.3518580796 117.835264022 336
-55.3518580796 117.835264022 334
-55.3518580796 117.835264022 332
-54.9900812294 117.065098898 330
-54.9900812294 117.065098898 328
-54.9900812294 117.065098898 326
-54.9900812294 117.065098898 324
-54.9900812294 117.065098898 322
-54.9900812294 117.065098898 320
-54.9900812294 117.065098898 318
-54.9900812294 117.065098898 316
-54.6283043793 116.294933773 314
-54.6283043793 116.294933773 312
-54.6283043793 116.294933773 310
-53.9047506789 114.754603525 308
-53.9047506789 114.754603525 306
-53.9047506789 114.754603525 304
-53.9047506789 114.754603525 302
-53.9047506789 114.754603525 300
-53.9047506789 114.754603525 298
-53.9047506789 114.754603525 296
-53.9047506789 114.754603525 294
-53.9047506789 114.754603525 292
-53.9047506789 114.754603525 290
-53.1811969785 113.214273276 288
-53.1811969785 113.214273276 286
-53.1811969785 113.214273276 284
-53.1811969785 113.214273276 282
-53.1811969785 113.214273276 280
-53.1811969785 113.214273276 278
-53.1811969785 113.214273276 276
-53.1811969785 113.214273276 274
-53.1811969785 113.214273276 272
-53.1811969785 113.214273276 270
-53.1811969785 113.214273276 268
-52.4576432781 111.673943027 266
-52.4576432781 111.673943027 264
-52.4576432781 111.673943027 262
-52.4576432781 111.673943027 260
-52.4576432781 111.673943027 258
-52.0958664279 110.903777903 256
-52.0958664279 110.903777903 254
-52.0958664279 110.903777903 252
-51.7340895777 110.133612779 250
-51.7340895777 110.133612779 248
-51.7340895777 110.133612779 246
-51.7340895777 110.133612779 244
-51.7340895777 110.133612779 242
-51.7340895777 110.133612779 240
-51.7340895777 110.133612779 238
-51.7340895777 110.133612779 236
-51.0105358773 108.59328253 234
-51.0105358773 108.59328253 232
-51.0105358773 108.59328253 230
-51.0105358773 108.59328253 228
-51.0105358773 108.59328253 226
-50.2869821769 107.052952281 224
-50.2869821769 107.052952281 222
-50.2869821769 107.052952281 220
-50.2869821769 107.052952281 218
-50.2869821769 107.052952281 216
-50.2869821769 107.052952281 214
-50.2869821769 107.052952281 212
-50.2869821769 107.052952281 210
-49.5634284765 105.512622033 208
-49.5634284765 105.512622033 206
-49.5634284765 105.512622033 204
32.1981396672 -68.544696065 202
31.836362817 -67.7745309407 200
31.4745859669 -67.0043658164 198
32.1981396672 -68.544696065 196
32.9216933676 -70.0850263137 194
-20.2595036108 43.1292469623 192
-22.430164712 47.7502377082 190
-23.1537184124 49.2905679569 188
-23.1537184124 49.2905679569 186
-23.1537184124 49.2905679569 184
-19.8977267607 42.3590818379 182
38.7101229707 -82.4076683029 180
39.0718998209 -83.1778334272 178
39.4336766711 -83.9479985516 176
40.1572303715 -85.4883288002 174
40.5190072217 -86.2584939245 172
41.6043377723 -88.5689892975 170
41.6043377723 -88.5689892975 168
41.6043377723 -88.5689892975 166
42.3278914727 -90.1093195462 164
43.0514451731 -91.6496497948 162
34.7305776186 -73.9358519353 90
34.7305776186 -73.9358519353 88
34.7305776186 -73.9358519353 86
36.5394618696 -77.786677557 84
38.7101229707 -82.4076683029 82
39.4336766711 -83.9479985516 80
39.4336766711 -83.9479985516 78
39.4336766711 -83.9479985516 76
40.5190072217 -86.2584939245 74
40.5190072217 -86.2584939245 72
40.5190072217 -86.2584939245 70
41.9661146225 -89.3391544218 68
41.9661146225 -89.3391544218 66
42.3278914727 -90.1093195462 64
42.3278914727 -90.1093195462 62
42.3278914727 -90.1093195462 60
42.3278914727 -90.1093195462 58
43.0514451731 -91.6496497948 56
43.7749988734 -93.1899800435 54
44.4985525738 -94.7303102921 52
44.4985525738 -94.7303102921 50
44.860329424 -95.5004754165 48
44.860329424 -95.5004754165 46
44.860329424 -95.5004754165 44
43.4132220232 -92.4198149192 42
42.3278914727 -90.1093195462 40
42.3278914727 -90.1093195462 38
42.3278914727 -90.1093195462 36
13.3857434572 -28.4961096001 4
13.3857434572 -28.4961096001 2
-59.9572697191 122.23120753 400
-59.9572697191 122.23120753 398
-59.9572697191 122.23120753 396
-58.4583379762 119.175427342 378
-58.4583379762 119.175427342 376
-58.4583379762 119.175427342 374
-58.4583379762 119.175427342 372
-58.4583379762 119.175427342 370
-58.8330709119 119.939372389 368
-58.8330709119 119.939372389 366
-58.8330709119 119.939372389 364
-58.8330709119 119.939372389 362
-58.8330709119 119.939372389 360
-58.8330709119 119.939372389 358
-58.0836050404 118.411482295 356
-58.0836050404 118.411482295 354
-58.0836050404 118.411482295 352
-58.0836050404 118.411482295 350
-58.0836050404 118.411482295 348
-56.9594062332 116.119647154 346
-56.9594062332 116.119647154 344
-56.9594062332 116.119647154 342
-57.3341391689 116.883592201 340
-57.3341391689 116.883592201 338
-57.3341391689 116.883592201 336
-57.3341391689 116.883592201 334
-57.3341391689 116.883592201 332
-56.9594062332 116.119647154 330
-56.9594062332 116.119647154 328
-56.9594062332 116.119647154 326
-56.9594062332 116.119647154 324
-56.9594062332 116.119647154 322
-56.5846732974 115.355702107 320
-56.5846732974 115.355702107 318
-56.5846732974 115.355702107 316
-56.5846732974 115.355702107 314
-56.5846732974 115.355702107 312
-56.5846732974 115.355702107 310
-55.8352074259 113.827812012 308
-55.8352074259 113.827812012 306
-55.8352074259 113.827812012 304
-55.8352074259 113.827812012 302
-55.8352074259 113.827812012 300
-55.8352074259 113.827812012 298
-55.8352074259 113.827812012 296
-55.8352074259 113.827812012 294
-55.8352074259 113.827812012 292
-55.8352074259 113.827812012 290
-55.0857415545 112.299921918 288
-55.0857415545 112.299921918 286
-55.0857415545 112.299921918 284
-55.0857415545 112.299921918 282
-55.0857415545 112.299921918 280
-55.0857415545 112.299921918 278
-55.0857415545 112.299921918 276
-55.0857415545 112.299921918 274
-55.0857415545 112.299921918 272
-55.0857415545 112.299921918 270
-55.0857415545 112.299921918 268
-54.336275683 110.772031824 266
-54.336275683 110.772031824 264
-54.336275683 110.772031824 262
-54.336275683 110.772031824 260
-54.336275683 110.772031824 258
-53.9615427472 110.008086777 256
-53.9615427472 110.008086777 254
-53.9615427472 110.008086777 252
-53.5868098115 109.24414173 250
-53.5868098115 109.24414173 248
-53.5868098115 109.24414173 246
-53.9615427472 110.008086777 244
-53.9615427472 110.008086777 242
-53.5868098115 109.24414173 240
-53.5868098115 109.24414173 238
-53.5868098115 109.24414173 236
-52.83734394 107.716251636 234
-52.83734394 107.716251636 232
-52.83734394 107.716251636 230
-52.4626110042 106.952306589 228
-52.4626110042 106.952306589 226
-52.0878780685 106.188361542 224
-52.0878780685 106.188361542 222
-52.0878780685 106.188361542 220
-52.0878780685 106.188361542 218
-52.0878780685 106.188361542 216
-52.0878780685 106.188361542 214
-52.0878780685 106.188361542 212
-52.0878780685 106.188361542 210
-51.338412197 104.660471448 208
-51.338412197 104.660471448 206
-51.338412197 104.660471448 204
31.8522995383 -64.9353290004 202
31.8522995383 -64.9353290004 200
31.8522995383 -64.9353290004 198
33.3512312813 -67.9911091886 196
34.1006971528 -69.5189992828 194
-19.8608455945 40.4890874944 192
-23.6081749519 48.128537965 190
-25.1071066949 51.1843181533 188
-25.4818396306 51.9482632003 186
-25.1071066949 51.1843181533 184
38.5974923817 -78.6863398475 182
40.0964241247 -81.7421200358 180
40.4711570604 -82.5060650829 178
41.9700888034 -85.5618452711 176
41.9700888034 -85.5618452711 174
41.9700888034 -85.5618452711 172
16.113516237 -32.8496370237 90
16.113516237 -32.8496370237 88
16.113516237 -32.8496370237 86
37.8480265102 -77.1584497534 84
40.0964241247 -81.7421200358 82
40.0964241247 -81.7421200358 80
40.8458899962 -83.2700101299 78
41.5953558677 -84.797900224 76
42.3448217391 -86.3257903182 74
42.3448217391 -86.3257903182 72
42.3448217391 -86.3257903182 70
43.4690205464 -88.6176254594 68
43.4690205464 -88.6176254594 66
43.8437534821 -89.3815705064 64
43.8437534821 -89.3815705064 62
43.8437534821 -89.3815705064 60
44.9679522894 -91.6734056476 58
44.9679522894 -91.6734056476 56
44.9679522894 -91.6734056476 54
46.0921510966 -93.9652407888 52
46.0921510966 -93.9652407888 50
46.0921510966 -93.9652407888 48
46.0921510966 -93.9652407888 46
46.0921510966 -93.9652407888 44
44.9679522894 -91.6734056476 42
44.5932193536 -90.9094606006 40
43.8437534821 -89.3815705064 38
43.8437534821 -89.3815705064 36
11.6167210081 -23.682296459 22
11.9914539438 -24.446241506 4
13.8651186226 -28.2659667413 2
-60.8503927461 118.928604569 378
-60.8503927461 118.928604569 376
-60.8503927461 118.928604569 374
-60.8503927461 118.928604569 368
-60.8503927461 118.928604569 366
-60.8503927461 118.928604569 364
-60.4628106267 118.171097533 362
-60.4628106267 118.171097533 360
-60.4628106267 118.171097533 358
-60.0752285073 117.413590498 356
-60.0752285073 117.413590498 354
-60.0752285073 117.413590498 352
-60.0752285073 117.413590498 350
-60.0752285073 117.413590498 348
-59.3000642685 115.898576427 346
-59.3000642685 115.898576427 344
-59.3000642685 115.898576427 342
-59.3000642685 115.898576427 340
-59.3000642685 115.898576427 338
-59.3000642685 115.898576427 336
-59.3000642685 115.898576427 334
-59.3000642685 115.898576427 332
-58.9124821491 115.141069391 330
-58.9124821491 115.141069391 328
-58.9124821491 115.141069391 326
-58.9124821491 115.141069391 324
-58.9124821491 115.141069391 322
-58.5249000297 114.383562356 320
-58.5249000297 114.383562356 318
-58.5249000297 114.383562356 316
-58.5249000297 114.383562356 314
-58.5249000297 114.383562356 312
-58.5249000297 114.383562356 310
-57.7497357909 112.868548285 308
-57.7497357909 112.868548285 306
-57.7497357909 112.868548285 304
-57.7497357909 112.868548285 302
-57.7497357909 112.868548285 300
-57.7497357909 112.868548285 298
-57.7497357909 112.868548285 296
-57.7497357909 112.868548285 294
-57.7497357909 112.868548285 292
-57.7497357909 112.868548285 290
-56.9745715521 111.353534214 288
-56.9745715521 111.353534214 286
-56.9745715521 111.353534214 284
-56.9745715521 111.353534214 282
-56.9745715521 111.353534214 280
-56.9745715521 111.353534214 278
-56.9745715521 111.353534214 276
-56.9745715521 111.353534214 274
-56.9745715521 111.353534214 272
-56.9745715521 111.353534214 270
-56.9745715521 111.353534214 268
-56.1994073133 109.838520143 266
-56.1994073133 109.838520143 264
-56.1994073133 109.838520143 262
-56.1994073133 109.838520143 260
-56.1994073133 109.838520143 258
-55.8118251939 109.081013107 256
-55.8118251939 109.081013107 254
-55.8118251939 109.081013107 252
-55.4242430745 108.323506072 250
-55.4242430745 108.323506072 248
-55.4242430745 108.323506072 246
-55.4242430745 108.323506072 244
-55.4242430745 108.323506072 242
-54.6490788357 106.808492001 240
-54.6490788357 106.808492001 238
-54.6490788357 106.808492001 236
-54.6490788357 106.808492001 234
-54.6490788357 106.808492001 232
-54.6490788357 106.808492001 230
-54.6490788357 106.808492001 228
-54.6490788357 106.808492001 226
-53.8739145969 105.29347793 224
-53.8739145969 105.29347793 222
-53.8739145969 105.29347793 220
-53.8739145969 105.29347793 218
-53.8739145969 105.29347793 216
-53.8739145969 105.29347793 214
-53.8739145969 105.29347793 212
-53.8739145969 105.29347793 210
-53.0987503581 103.778463859 208
-53.0987503581 103.778463859 206
-53.0987503581 103.778463859 204
32.9444801492 -64.3880980148 200
32.9444801492 -64.3880980148 198
32.9444801492 -64.3880980148 196
34.4948086268 -67.4181261567 194
-24.8052556417 48.48045027 192
-25.9680019999 50.7529713764 190
-26.7431662387 52.2679854473 188
-26.7431662387 52.2679854473 186
-25.9680019999 50.7529713764 184
39.9209582984 -78.0232246533 182
41.471286776 -81.0532527951 180
41.471286776 -81.0532527951 178
35.657554985 -69.6906472631 92
15.8908668955 -31.0577884542 90
15.8908668955 -31.0577884542 88
15.8908668955 -31.0577884542 86
39.1457940596 -76.5082105823 84
41.471286776 -81.0532527951 82
41.471286776 -81.0532527951 80
42.2464510148 -82.5682668661 78
43.0216152536 -84.083280937 76
43.409197373 -84.8407879725 74
43.409197373 -84.8407879725 72
43.409197373 -84.8407879725 70
44.9595258506 -87.8708161144 68
44.9595258506 -87.8708161144 66
45.34710797 -88.6283231498 64
45.34710797 -88.6283231498 62
45.34710797 -88.6283231498 60
45.34710797 -88.6283231498 58
46.1222722088 -90.1433372208 56
46.8974364476 -91.6583512917 54
47.6726006864 -93.1733653626 52
47.6726006864 -93.1733653626 50
47.6726006864 -93.1733653626 48
47.6726006864 -93.1733653626 46
47.6726006864 -93.1733653626 44
46.5098543282 -90.9008442562 42
45.34710797 -88.6283231498 40
45.34710797 -88.6283231498 38
45.34710797 -88.6283231498 36
12.0150457015 -23.4827180995 22
11.2398814627 -21.9677040286 20
12.4026278209 -24.240225135 4
12.4026278209 -24.240225135 2
-62.8503554918 117.883909405 378
-62.8503554918 117.883909405 376
-62.8503554918 117.883909405 374
-62.8503554918 117.883909405 368
-62.8503554918 117.883909405 366
-62.8503554918 117.883909405 364
-62.4500347562 117.133056479 362
-62.4500347562 117.133056479 360
-62.4500347562 117.133056479 358
-62.0497140206 116.382203552 356
-62.0497140206 116.382203552 354
-62.0497140206 116.382203552 352
-62.0497140206 116.382203552 350
-62.0497140206 116.382203552 348
-61.2490725493 114.8804977 346
-61.2490725493 114.8804977 344
-61.2490725493 114.8804977 342
-61.2490725493 114.8804977 340
-61.2490725493 114.8804977 338
-61.2490725493 114.8804977 336
-61.2490725493 114.8804977 334
-61.2490725493 114.8804977 332
-60.8487518137 114.129644774 330
-60.8487518137 114.129644774 328
-60.8487518137 114.129644774 326
-60.8487518137 114.129644774 324
-60.8487518137 114.129644774 322
-60.4484310781 113.378791848 320
-60.4484310781 113.378791848 318
-60.4484310781 113.378791848 316
-60.4484310781 113.378791848 314
-60.4484310781 113.378791848 312
-60.4484310781 113.378791848 310
-59.6477896069 111.877085996 308
-59.6477896069 111.877085996 306
-59.6477896069 111.877085996 304
-59.6477896069 111.877085996 302
-59.6477896069 111.877085996 300
-59.6477896069 111.877085996 298
-59.6477896069 111.877085996 296
-59.6477896069 111.877085996 294
-59.6477896069 111.877085996 292
-59.6477896069 111.877085996 290
-58.8471481356 110.375380143 288
-58.8471481356 110.375380143 286
-58.8471481356 110.375380143 284
-58.8471481356 110.375380143 282
-58.8471481356 110.375380143 280
-58.8471481356 110.375380143 278
-58.8471481356 110.375380143 276
-58.8471481356 110.375380143 274
-58.8471481356 110.375380143 272
-58.8471481356 110.375380143 270
-58.8471481356 110.375380143 268
-58.0465066644 108.873674291 266
-58.0465066644 108.873674291 264
-58.0465066644 108.873674291 262
-58.0465066644 108.873674291 260
-58.0465066644 108.873674291 258
-57.6461859288 108.122821365 256
-57.6461859288 108.122821365 254
-57.6461859288 108.122821365 252
-57.2458651932 107.371968439 250
-57.2458651932 107.371968439 248
-57.2458651932 107.371968439 246
-57.2458651932 107.371968439 244
-57.2458651932 107.371968439 242
-56.4452237219 105.870262586 240
-56.4452237219 105.870262586 238
-56.4452237219 105.870262586 236
-56.4452237219 105.870262586 234
-56.4452237219 105.870262586 232
-56.4452237219 105.870262586 230
-56.4452237219 105.870262586 228
-56.4452237219 105.870262586 226
-55.6445822507 104.368556734 224
-55.6445822507 104.368556734 222
-55.6445822507 104.368556734 220
-55.6445822507 104.368556734 218
-55.6445822507 104.368556734 216
-55.6445822507 104.368556734 214
-55.6445822507 104.368556734 212
-55.6445822507 104.368556734 210
-54.4436200438 102.115997956 208
-54.4436200438 102.115997956 206
-54.4436200438 102.115997956 204
33.6269417918 -63.0716457962 202
33.6269417918 -63.0716457962 200
33.6269417918 -63.0716457962 198
34.0272625274 -63.8224987223 196
35.2282247343 -66.0750575007 194
-25.6205270795 48.0545872733 192
-27.6221307575 51.808851904 190
-27.6221307575 51.808851904 188
-28.4227722288 53.3105577563 186
-28.4227722288 53.3105577563 184
-28.4227722288 53.3105577563 182
16.0128294247 -30.0341170458 90
16.0128294247 -30.0341170458 88
16.0128294247 -30.0341170458 86
41.6333565041 -78.088704319 84
42.834318711 -80.3412630975 82
44.8359223891 -84.0955277282 80
44.8359223891 -84.0955277282 78
44.8359223891 -84.0955277282 76
46.4372053315 -87.0989394328 74
46.4372053315 -87.0989394328 72
46.4372053315 -87.0989394328 70
46.8375260671 -87.8497923589 68
46.8375260671 -87.8497923589 66
48.4388090096 -90.8532040635 64
48.4388090096 -90.8532040635 62
48.4388090096 -90.8532040635 60
49.2394504808 -92.3549099158 58
49.2394504808 -92.3549099158 56
49.2394504808 -92.3549099158 54
49.2394504808 -92.3549099158 52
49.2394504808 -92.3549099158 50
49.2394504808 -92.3549099158 48
49.2394504808 -92.3549099158 46
49.2394504808 -92.3549099158 44
48.4388090096 -90.8532040635 42
48.038488274 -90.1023511374 40
46.8375260671 -87.8497923589 38
12.4099428041 -23.2764407105 22
11.6093013329 -21.7747348582 20
12.8102635397 -24.0272936366 4
16.0128294247 -30.0341170458 2
-64.8323886098 116.805584923 368
-64.8323886098 116.805584923 366
-64.8323886098 116.805584923 364
-64.0064983091 115.317615688 362
-64.0064983091 115.317615688 360
-64.0064983091 115.317615688 358
-64.4194434594 116.061600305 356
-64.4194434594 116.061600305 354
-64.0064983091 115.317615688 352
-64.0064983091 115.317615688 350
-64.0064983091 115.317615688 348
-62.7676628579 113.085661836 346
-62.7676628579 113.085661836 344
-62.7676628579 113.085661836 342
-63.1806080083 113.829646453 340
-63.1806080083 113.829646453 338
-62.7676628579 113.085661836 336
-62.7676628579 113.085661836 334
-62.7676628579 113.085661836 332
-62.7676628579 113.085661836 330
-62.7676628579 113.085661836 328
-62.7676628579 113.085661836 326
-62.7676628579 113.085661836 324
-62.7676628579 113.085661836 322
-62.3547177075 112.341677219 320
-62.3547177075 112.341677219 318
-62.3547177075 112.341677219 316
-62.3547177075 112.341677219 314
-62.3547177075 112.341677219 312
-62.3547177075 112.341677219 310
-61.5288274068 110.853707984 308
-61.5288274068 110.853707984 306
-61.5288274068 110.853707984 304
-61.5288274068 110.853707984 302
-61.5288274068 110.853707984 300
-61.5288274068 110.853707984 298
-61.5288274068 110.853707984 296
-61.5288274068 110.853707984 294
-61.5288274068 110.853707984 292
-61.5288274068 110.853707984 290
-60.702937106 109.365738749 288
-60.702937106 109.365738749 286
-60.702937106 109.365738749 284
-60.702937106 109.365738749 282
-60.702937106 109.365738749 280
-60.702937106 109.365738749 278
-60.702937106 109.365738749 276
-60.702937106 109.365738749 274
-60.702937106 109.365738749 272
-60.702937106 109.365738749 270
-60.702937106 109.365738749 268
-59.8770468052 107.877769515 266
-59.8770468052 107.877769515 264
-59.8770468052 107.877769515 262
-59.8770468052 107.877769515 260
-59.8770468052 107.877769515 258
-59.4641016549 107.133784897 256
-59.4641016549 107.133784897 254
-59.4641016549 107.133784897 252
-59.0511565045 106.38980028 250
-59.0511565045 106.38980028 248
-59.0511565045 106.38980028 246
-59.0511565045 106.38980028 244
-59.0511565045 106.38980028 242
-58.2252662037 104.901831045 240
-58.2252662037 104.901831045 238
-58.2252662037 104.901831045 236
-58.2252662037 104.901831045 234
-58.2252662037 104.901831045 232
-58.2252662037 104.901831045 230
-58.2252662037 104.901831045 228
-58.2252662037 104.901831045 226
-57.399375903 103.413861811 224
-57.399375903 103.413861811 222
-57.399375903 103.413861811 220
-57.399375903 103.413861811 218
-57.399375903 103.413861811 216
-57.399375903 103.413861811 214
-57.399375903 103.413861811 212
-57.399375903 103.413861811 210
-56.1605404518 101.181907958 208
-56.1605404518 101.181907958 206
-56.1605404518 101.181907958 204
-55.7475953014 100.437923341 202
33.4485571809 -60.2627540047 200
33.0356120305 -59.5187693874 198
35.1003377824 -63.2386924741 196
35.1003377824 -63.2386924741 194
-26.4284896244 47.6150155099 192
-29.7320508274 53.5668924486 190
-30.1449959778 54.310877066 188
-30.1449959778 54.310877066 186
-29.7320508274 53.5668924486 184
15.2789705641 -27.5274308417 90
15.2789705641 -27.5274308417 88
15.2789705641 -27.5274308417 86
42.9462956396 -77.3744002036 84
44.1851310908 -79.6063540556 82
46.2498568427 -83.3262771423 80
46.2498568427 -83.3262771423 78
46.2498568427 -83.3262771423 76
47.9016374442 -86.3022156117 74
47.9016374442 -86.3022156117 72
47.9016374442 -86.3022156117 70
49.9663631961 -90.0221386984 68
49.9663631961 -90.0221386984 66
50.7922534969 -91.5101079331 64
50.7922534969 -91.5101079331 62
50.7922534969 -91.5101079331 60
50.7922534969 -91.5101079331 58
51.6181437976 -92.9980771677 56
52.8569792488 -95.2300310198 54
11.5624642107 -20.8315692856 26
11.1495190603 -20.0875846682 24
11.1495190603 -20.0875846682 22
11.975409361 -21.5755539029 20
13.2142448122 -23.8075077549 4
16.5178060152 -29.7593846937 2
-68.0722819627 117.904650947 394
-68.0722819627 117.904650947 392
-68.0722819627 117.904650947 390
-66.7959266759 115.693938741 378
-66.7959266759 115.693938741 376
-66.7959266759 115.693938741 374
-66.7959266759 115.693938741 368
-66.7959266759 115.693938741 366
-66.7959266759 115.693938741 364
-65.9450231514 114.220130605 362
-65.9450231514 114.220130605 360
-65.9450231514 114.220130605 358
-66.3704749137 114.957034673 356
-66.3704749137 114.957034673 354
-65.9450231514 114.220130605 352
-65.9450231514 114.220130605 350
-65.9450231514 114.220130605 348
-64.6686678646 112.009418399 346
-64.6686678646 112.009418399 344
-64.6686678646 112.009418399 342
-64.6686678646 112.009418399 340
-64.6686678646 112.009418399 338
-64.6686678646 112.009418399 336
-64.6686678646 112.009418399 334
-64.6686678646 112.009418399 332
-64.6686678646 112.009418399 330
-64.6686678646 112.009418399 328
-64.6686678646 112.009418399 326
-64.6686678646 112.009418399 324
-64.6686678646 112.009418399 322
-64.2432161023 111.272514331 320
-64.2432161023 111.272514331 318
-64.2432161023 111.272514331 316
-64.2432161023 111.272514331 314
-64.2432161023 111.272514331 312
-64.2432161023 111.272514331 310
-63.3923125778 109.798706194 308
-63.3923125778 109.798706194 306
-63.3923125778 109.798706194 304
-63.3923125778 109.798706194 302
-63.3923125778 109.798706194 300
-63.3923125778 109.798706194 298
-63.3923125778 109.798706194 296
-63.3923125778 109.798706194 294
-63.3923125778 109.798706194 292
-63.3923125778 109.798706194 290
-62.5414090533 108.324898057 288
-62.5414090533 108.324898057 286
-62.5414090533 108.324898057 284
-62.5414090533 108.324898057 282
-62.5414090533 108.324898057 280
-62.5414090533 108.324898057 278
-62.5414090533 108.324898057 276
-62.5414090533 108.324898057 274
-62.5414090533 108.324898057 272
-62.5414090533 108.324898057 270
-62.5414090533 108.324898057 268
-61.6905055287 106.85108992 266
-61.6905055287 106.85108992 264
-61.6905055287 106.85108992 262
-61.6905055287 106.85108992 260
-61.6905055287 106.85108992 258
-61.2650537665 106.114185852 256
-61.2650537665 106.114185852 254
-61.2650537665 106.114185852 252
-60.8396020042 105.377281784 250
-60.8396020042 105.377281784 248
-60.8396020042 105.377281784 246
-60.8396020042 105.377281784 244
-60.8396020042 105.377281784 242
-59.9886984797 103.903473647 240
-59.9886984797 103.903473647 238
-59.9886984797 103.903473647 236
-59.9886984797 103.903473647 234
-59.9886984797 103.903473647 232
-59.9886984797 103.903473647 230
-59.9886984797 103.903473647 228
-59.9886984797 103.903473647 226
-59.1377949551 102.42966551 224
-59.1377949551 102.42966551 222
-59.1377949551 102.42966551 220
-59.1377949551 102.42966551 218
-59.1377949551 102.42966551 216
-59.1377949551 102.42966551 214
-59.1377949551 102.42966551 212
-59.1377949551 102.42966551 210
-57.8614396683 100.218953305 208
-57.8614396683 100.218953305 206
-57.8614396683 100.218953305 204
-57.4359879061 99.4820492362 202
35.3124962682 -61.1630376785 200
34.0361409814 -58.9523254733 198
35.3124962682 -61.1630376785 196
36.1633997927 -62.6368458154 194
-27.6543645474 47.8987644471 192
-31.0579786455 53.7939969944 190
-31.90888217 55.2678051312 188
-31.90888217 55.2678051312 186
-30.207075121 52.3201888576 184
39.1415621286 -67.7951742943 92
14.8908116793 -25.7916423946 90
14.8908116793 -25.7916423946 88
14.8908116793 -25.7916423946 86
15.3162634416 -26.528546463 84
15.3162634416 -26.528546463 82
47.6505973739 -82.5332556626 80
47.6505973739 -82.5332556626 78
47.6505973739 -82.5332556626 76
49.352404423 -85.4808719363 74
49.352404423 -85.4808719363 72
49.352404423 -85.4808719363 70
51.054211472 -88.42848821 68
51.054211472 -88.42848821 66
52.3305667588 -90.6392004152 64
52.3305667588 -90.6392004152 62
52.3305667588 -90.6392004152 60
52.3305667588 -90.6392004152 58
53.1814702834 -92.113008552 56
11.4871975812 -19.8964098472 26
11.4871975812 -19.8964098472 24
10.6362940567 -18.4226017104 22
11.4871975812 -19.8964098472 20
13.6144563925 -23.5809301893 4
13.6144563925 -23.5809301893 2
-70.0539205524 116.738127883 394
-70.0539205524 116.738127883 392
-70.0539205524 116.738127883 390
-68.740409542 114.549287985 378
-68.740409542 114.549287985 376
-68.740409542 114.549287985 374
-68.3025725386 113.819674686 368
-68.3025725386 113.819674686 366
-68.3025725386 113.819674686 364
-67.8647355351 113.090061387 362
-67.8647355351 113.090061387 360
-67.8647355351 113.090061387 358
-68.3025725386 113.819674686 356
-68.3025725386 113.819674686 354
-67.8647355351 113.090061387 352
-67.8647355351 113.090061387 350
-67.8647355351 113.090061387 348
-66.5512245248 110.901221489 346
-66.5512245248 110.901221489 344
-66.5512245248 110.901221489 342
-66.5512245248 110.901221489 340
-66.5512245248 110.901221489 338
-66.5512245248 110.901221489 336
-66.5512245248 110.901221489 334
-66.5512245248 110.901221489 332
-66.5512245248 110.901221489 330
-66.5512245248 110.901221489 328
-66.5512245248 110.901221489 326
-66.5512245248 110.901221489 324
-66.5512245248 110.901221489 322
-66.1133875213 110.17160819 320
-66.1133875213 110.17160819 318
-66.1133875213 110.17160819 316
-66.1133875213 110.17160819 314
-66.1133875213 110.17160819 312
-66.1133875213 110.17160819 310
-65.2377135144 108.712381591 308
-65.2377135144 108.712381591 306
-65.2377135144 108.712381591 304
-65.2377135144 108.712381591 302
-65.2377135144 108.712381591 300
-65.2377135144 108.712381591 298
-65.2377135144 108.712381591 296
-65.2377135144 108.712381591 294
-65.2377135144 108.712381591 292
-65.2377135144 108.712381591 290
-64.3620395075 107.253154993 288
-64.3620395075 107.253154993 286
-64.3620395075 107.253154993 284
-64.3620395075 107.253154993 282
-64.3620395075 107.253154993 280
-64.3620395075 107.253154993 278
-64.3620395075 107.253154993 276
-64.3620395075 107.253154993 274
-64.3620395075 107.253154993 272
-64.3620395075 107.253154993 270
-64.3620395075 107.253154993 268
-63.4863655006 105.793928394 266
-63.4863655006 105.793928394 264
-63.4863655006 105.793928394 262
-63.4863655006 105.793928394 260
-63.4863655006 105.793928394 258
-63.0485284971 105.064315095 256
-63.0485284971 105.064315095 254
-63.0485284971 105.064315095 252
-62.6106914937 104.334701796 250
-62.6106914937 104.334701796 248
-62.6106914937 104.334701796 246
-62.6106914937 104.334701796 244
-62.6106914937 104.334701796 242
-61.7350174868 102.875475197 240
-61.7350174868 102.875475197 238
-61.7350174868 102.875475197 236
-61.7350174868 102.875475197 234
-61.7350174868 102.875475197 232
-61.7350174868 102.875475197 230
-61.7350174868 102.875475197 228
-61.7350174868 102.875475197 226
-60.8593434799 101.416248599 224
-60.8593434799 101.416248599 222
-60.8593434799 101.416248599 220
-60.8593434799 101.416248599 218
-60.8593434799 101.416248599 216
-60.8593434799 101.416248599 214
-60.8593434799 101.416248599 212
-60.8593434799 101.416248599 210
-59.983669473 99.9570220001 208
-59.983669473 99.9570220001 206
-59.983669473 99.9570220001 204
-59.5458324695 99.2274087008 202
36.3404712866 -60.5579038395 196
36.3404712866 -60.5579038395 194
-32.8377752589 54.7209974453 192
-32.8377752589 54.7209974453 190
-32.8377752589 54.7209974453 188
-32.8377752589 54.7209974453 186
-30.2107532382 50.3433176497 184
-29.3350792313 48.8840910511 182
15.7621321243 -26.2660787737 90
15.7621321243 -26.2660787737 88
15.7621321243 -26.2660787737 86
46.8485593694 -78.0686230219 84
46.8485593694 -78.0686230219 82
49.0377443867 -81.7166895183 80
49.0377443867 -81.7166895183 78
49.0377443867 -81.7166895183 76
50.351255397 -83.9055294161 74
50.351255397 -83.9055294161 72
50.351255397 -83.9055294161 70
52.9782774177 -88.2832092117 68
52.9782774177 -88.2832092117 66
53.8539514246 -89.7424358103 64
53.8539514246 -89.7424358103 62
53.8539514246 -89.7424358103 60
54.7296254316 -91.2016624088 58
54.7296254316 -91.2016624088 56
54.7296254316 -91.2016624088 54
11.8215990932 -19.6995590803 26
11.8215990932 -19.6995590803 24
10.9459250863 -18.2403324818 22
11.8215990932 -19.6995590803 20
14.0107841105 -23.3476255767 4
14.0107841105 -23.3476255767 2
-70.665282496 113.371959195 378
-70.665282496 113.371959195 376
-70.665282496 113.371959195 374
-69.7650878145 111.927730416 362
-69.7650878145 111.927730416 360
-69.7650878145 111.927730416 358
-69.7650878145 111.927730416 356
-69.7650878145 111.927730416 354
-69.7650878145 111.927730416 352
-69.7650878145 111.927730416 350
-69.7650878145 111.927730416 348
-68.4147957923 109.761387246 346
-68.4147957923 109.761387246 344
-68.4147957923 109.761387246 342
-68.4147957923 109.761387246 340
-68.4147957923 109.761387246 338
-68.4147957923 109.761387246 336
-68.4147957923 109.761387246 334
-68.4147957923 109.761387246 332
-68.4147957923 109.761387246 330
-68.4147957923 109.761387246 328
-68.4147957923 109.761387246 326
-68.4147957923 109.761387246 324
-68.4147957923 109.761387246 322
-67.9646984516 109.039272856 320
-67.9646984516 109.039272856 318
-67.9646984516 109.039272856 316
-67.9646984516 109.039272856 314
-67.9646984516 109.039272856 312
-67.9646984516 109.039272856 310
-67.0645037701 107.595044077 308
-67.0645037701 107.595044077 306
-67.0645037701 107.595044077 304
-67.0645037701 107.595044077 302
-67.0645037701 107.595044077 300
-67.0645037701 107.595044077 298
-67.0645037701 107.595044077 296
-67.0645037701 107.595044077 294
-67.0645037701 107.595044077 292
-67.0645037701 107.595044077 290
-66.1643090886 106.150815297 288
-66.1643090886 106.150815297 286
-66.1643090886 106.150815297 284
-66.1643090886 106.150815297 282
-66.1643090886 106.150815297 280
-66.1643090886 106.150815297 278
-66.1643090886 106.150815297 276
-66.1643090886 106.150815297 274
-66.1643090886 106.150815297 272
-66.1643090886 106.150815297 270
-66.1643090886 106.150815297 268
-65.2641144071 104.706586518 266
-65.2641144071 104.706586518 264
-65.2641144071 104.706586518 262
-65.2641144071 104.706586518 260
-65.2641144071 104.706586518 258
-64.8140170664 103.984472128 256
-64.8140170664 103.984472128 254
-64.8140170664 103.984472128 252
-64.3639197257 103.262357738 250
-64.3639197257 103.262357738 248
-64.3639197257 103.262357738 246
-64.3639197257 103.262357738 244
-64.3639197257 103.262357738 242
-64.3639197257 103.262357738 240
-64.3639197257 103.262357738 238
-64.3639197257 103.262357738 236
-63.4637250442 101.818128959 234
-63.4637250442 101.818128959 232
-63.4637250442 101.818128959 230
-63.0136277034 101.096014569 228
-63.0136277034 101.096014569 226
-62.5635303627 100.373900179 224
-62.5635303627 100.373900179 222
-62.5635303627 100.373900179 220
-62.5635303627 100.373900179 218
-62.5635303627 100.373900179 216
-62.5635303627 100.373900179 214
-62.5635303627 100.373900179 212
-62.5635303627 100.373900179 210
-61.2132383405 98.2075570098 208
-61.2132383405 98.2075570098 206
-61.2132383405 98.2075570098 204
-61.2132383405 98.2075570098 202
33.7573005554 -54.1585792333 198
36.4578845999 -58.491265572 196
36.4578845999 -58.491265572 194
-33.7573005554 54.1585792333 192
-33.7573005554 54.1585792333 190
-34.6574952369 55.6028080129 188
-34.6574952369 55.6028080129 186
-33.7573005554 54.1585792333 182
16.2035042666 -25.996118032 90
16.2035042666 -25.996118032 88
16.2035042666 -25.996118032 86
48.1604154591 -77.2662397062 84
49.0606101405 -78.7104684858 82
50.4109021628 -80.8768116551 80
50.4109021628 -80.8768116551 78
50.4109021628 -80.8768116551 76
51.761194185 -83.0431548245 74
51.761194185 -83.0431548245 72
51.761194185 -83.0431548245 70
54.0116808887 -86.6537267734 68
54.0116808887 -86.6537267734 66
55.3619729109 -88.8200699427 64
55.3619729109 -88.8200699427 62
55.3619729109 -88.8200699427 60
54.4617782294 -87.3758411631 58
54.4617782294 -87.3758411631 56
52.6613888665 -84.487383604 54
52.6613888665 -84.487383604 52
52.6613888665 -84.487383604 50
52.6613888665 -84.487383604 48
52.6613888665 -84.487383604 46
52.6613888665 -84.487383604 44
52.6613888665 -84.487383604 42
12.1526282 -19.497088524 26
11.2524335185 -18.0528597444 24
10.8023361777 -17.3307453547 22
12.1526282 -19.497088524 20
14.4031149036 -23.1076604729 4
16.6536016073 -26.7182324218 2
-73.9566842496 114.30551667 388
-73.9566842496 114.30551667 386
-72.56999642 112.162288233 378
-72.56999642 112.162288233 376
-72.56999642 112.162288233 374
-72.1077671434 111.447878753 368
-72.1077671434 111.447878753 366
-72.1077671434 111.447878753 364
-71.6455378668 110.733469274 356
-71.6455378668 110.733469274 354
-71.6455378668 110.733469274 352
-71.6455378668 110.733469274 350
-71.6455378668 110.733469274 348
-70.2588500372 108.590240837 346
-70.2588500372 108.590240837 344
-70.2588500372 108.590240837 342
-69.7966207606 107.875831358 340
-69.7966207606 107.875831358 338
-70.2588500372 108.590240837 336
-70.2588500372 108.590240837 334
-70.2588500372 108.590240837 332
-70.2588500372 108.590240837 330
-70.2588500372 108.590240837 328
-70.2588500372 108.590240837 326
-70.2588500372 108.590240837 324
-70.2588500372 108.590240837 322
-69.7966207606 107.875831358 320
-69.7966207606 107.875831358 318
-69.7966207606 107.875831358 316
-69.7966207606 107.875831358 314
-69.7966207606 107.875831358 312
-69.7966207606 107.875831358 310
-68.8721622075 106.447012399 308
-68.8721622075 106.447012399 306
-68.8721622075 106.447012399 304
-68.8721622075 106.447012399 302
-68.8721622075 106.447012399 300
-68.8721622075 106.447012399 298
-68.8721622075 106.447012399 296
-68.8721622075 106.447012399 294
-68.8721622075 106.447012399 292
-68.8721622075 106.447012399 290
-67.9477036544 105.018193441 288
-67.9477036544 105.018193441 286
-67.9477036544 105.018193441 284
