-96.1116583682 -3.24794176662 192
-94.6982516275 -3.20017791711 189
-94.6982516275 -3.20017791711 186
-94.6982516275 -3.20017791711 183
-94.6982516275 -3.20017791711 180
-93.2848448868 -3.1524140676 177
-94.6982516275 -3.20017791711 174
-80.5641842204 -2.72253942202 171
-93.9915482571 -3.17629599236 168
-96.1116583682 -3.24794176662 165
-98.2317684792 -3.31958754088 162
-98.9384718496 -3.34346946564 159
-98.9384718496 -3.34346946564 156
-98.2317684792 -3.31958754088 153
-72.7904471465 -2.45983824972 144
-31.0949482956 -1.0508046892 138
-30.3882449252 -1.02692276445 135
-43.815608962 -1.48067933478 132
-34.6284651474 -1.17021431297 129
-38.8686853695 -1.3135058615 126
-41.6954988509 -1.40903356052 123
-124.379793182 -4.2032187568 120
-127.206606664 -4.29874645582 117
-128.620013404 -4.34651030533 114
-130.033420145 -4.39427415484 111
-130.740123516 -4.41815607959 108
-132.153530256 -4.4659199291 105
-132.153530256 -4.4659199291 102
-132.153530256 -4.4659199291 99
-133.566936997 -4.51368377861 96
-133.566936997 -4.51368377861 93
-134.273640367 -4.53756570337 90
-135.687047108 -4.58532955287 87
-137.807157219 -4.65697532714 84
-140.6339707 -4.75250302616 81
]);  
 
rotate([90,0,2.90322580645])linear_extrude(height=1, center=false, convexity=14, twist=0) polygon([127.115858647 6.44658673452 513
126.409659432 6.41077236377 510
126.409659432 6.41077236377 507
124.997261003 6.33914362227 504
124.997261003 6.33914362227 501
124.997261003 6.33914362227 498
124.997261003 6.33914362227 495
124.997261003 6.33914362227 492
124.997261003 6.33914362227 489
123.584862573 6.26751488078 486
123.584862573 6.26751488078 483
122.878663358 6.23170051003 480
122.172464144 6.19588613929 477
122.172464144 6.19588613929 474
121.466264929 6.16007176854 471
121.466264929 6.16007176854 468
120.760065714 6.12425739779 465
120.760065714 6.12425739779 462
119.347667285 6.0526286563 459
119.347667285 6.0526286563 456
119.347667285 6.0526286563 453
119.347667285 6.0526286563 450
119.347667285 6.0526286563 447
118.64146807 6.01681428555 444
118.64146807 6.01681428555 441
117.935268856 5.9809999148 438
117.229069641 5.94518554405 435
117.229069641 5.94518554405 432
116.522870426 5.90937117331 429
116.522870426 5.90937117331 426
115.816671211 5.87355680256 423
115.110471997 5.83774243181 420
114.404272782 5.80192806107 417
114.404272782 5.80192806107 414
114.404272782 5.80192806107 411
113.698073567 5.76611369032 408
113.698073567 5.76611369032 405
112.991874353 5.73029931957 402
112.991874353 5.73029931957 399
112.991874353 5.73029931957 396
112.285675138 5.69448494882 393
111.579475923 5.65867057808 390
111.579475923 5.65867057808 387
111.579475923 5.65867057808 384
110.873276708 5.62285620733 381
110.167077494 5.58704183658 378
109.460878279 5.55122746583 375
108.754679064 5.51541309509 372
108.754679064 5.51541309509 369
108.754679064 5.51541309509 366
108.04847985 5.47959872434 363
107.342280635 5.44378435359 360
107.342280635 5.44378435359 357
107.342280635 5.44378435359 354
106.63608142 5.40796998284 351
105.929882206 5.3721556121 348
105.223682991 5.33634124135 345
105.223682991 5.33634124135 342
105.223682991 5.33634124135 339
103.811284561 5.26471249986 336
103.811284561 5.26471249986 333
103.105085347 5.22889812911 330
103.105085347 5.22889812911 327
102.398886132 5.19308375836 324
101.692686917 5.15726938761 321
101.692686917 5.15726938761 318
101.692686917 5.15726938761 315
100.986487703 5.12145501687 312
100.986487703 5.12145501687 309
-28.9541678028 -1.46838920064 306
-35.3099607352 -1.79071853737 303
-38.8409568087 -1.9697903911 300
-39.5471560234 -2.00560476185 297
112.991874353 5.73029931957 294
105.929882206 5.3721556121 291
108.04847985 5.47959872434 288
110.167077494 5.58704183658 285
139.121245297 7.05543103722 282
115.110471997 5.83774243181 279
117.935268856 5.9809999148 276
120.0538665 6.08844302704 273
120.760065714 6.12425739779 270
122.878663358 6.23170051003 267
122.172464144 6.19588613929 264
108.04847985 5.47959872434 261
-86.1563041938 -4.36935323117 258
-88.9811010527 -4.51261071416 255
-91.8058979115 -4.65586819715 252
-92.5120971262 -4.6916825679 249
-96.7492924144 -4.90656879238 246
-103.811284561 -5.26471249986 243
-102.398886132 -5.19308375836 240
-101.692686917 -5.15726938761 237
-94.6306947703 -4.79912568014 234
-94.6306947703 -4.79912568014 231
-94.6306947703 -4.79912568014 228
-95.336893985 -4.83494005089 225
-92.5120971262 -4.6916825679 222
-92.5120971262 -4.6916825679 219
-92.5120971262 -4.6916825679 216
-93.9244955556 -4.76331130939 213
-91.8058979115 -4.65586819715 210
-95.336893985 -4.83494005089 207
-92.5120971262 -4.6916825679 204
-94.6306947703 -4.79912568014 201
-89.6873002674 -4.54842508491 198
-93.9244955556 -4.76331130939 195
-72.0323198998 -3.65306581623 192
-72.7385191145 -3.68888018697 189
-96.0430931997 -4.87075442163 186
-93.9244955556 -4.76331130939 183
-95.336893985 -4.83494005089 180
-94.6306947703 -4.79912568014 177
-93.9244955556 -4.76331130939 174
-80.5067104762 -4.08283826519 171
-62.1455308939 -3.15166462576 168
-95.336893985 -4.83494005089 165
-98.1616908438 -4.97819753388 162
-98.8678900585 -5.01401190462 159
-98.1616908438 -4.97819753388 156
-98.1616908438 -4.97819753388 153
-72.7385191145 -3.68888018697 147
-76.269515188 -3.86795204071 144
-31.072765447 -1.57583231288 138
-53.6711403175 -2.7218921768 135
-43.7843513116 -2.22049098633 132
-31.7789646617 -1.61164668363 129
-27.5417693734 -1.39676045915 126
-124.291061788 -6.30332925153 123
-125.703460217 -6.37495799302 120
-127.115858647 -6.44658673452 117
-128.528257076 -6.51821547601 114
-129.234456291 -6.55402984676 111
-127.822057861 -6.48240110526 108
-132.05925315 -6.69728732975 105
-132.765452364 -6.7331017005 102
-133.471651579 -6.76891607124 99
-133.471651579 -6.76891607124 96
-134.177850794 -6.80473044199 93
-134.884050008 -6.84054481274 90
-135.590249223 -6.87635918348 87
-137.708846867 -6.98380229573 84
-139.827444511 -7.09124540797 81
]);  
 
rotate([90,0,3.87096774194])linear_extrude(height=1, center=false, convexity=14, twist=0) polygon([126.988847668 8.59258796395 513
126.28335407 8.54485136415 510
125.577860472 8.49711476435 507
125.577860472 8.49711476435 504
124.872366874 8.44937816455 501
124.872366874 8.44937816455 498
124.872366874 8.44937816455 495
124.872366874 8.44937816455 492
124.166873276 8.40164156475 489
123.461379677 8.35390496495 486
123.461379677 8.35390496495 483
122.755886079 8.30616836515 480
122.755886079 8.30616836515 477
122.755886079 8.30616836515 474
121.344898883 8.21069516555 471
121.344898883 8.21069516555 468
120.639405285 8.16295856576 465
120.639405285 8.16295856576 462
119.228418088 8.06748536616 459
119.228418088 8.06748536616 456
119.228418088 8.06748536616 453
119.228418088 8.06748536616 450
119.228418088 8.06748536616 447
119.228418088 8.06748536616 444
118.52292449 8.01974876636 441
118.52292449 8.01974876636 438
117.111937294 7.92427556676 435
117.111937294 7.92427556676 432
116.406443696 7.87653896696 429
116.406443696 7.87653896696 426
115.700950098 7.82880236716 423
114.995456499 7.78106576736 420
114.289962901 7.73332916756 417
114.289962901 7.73332916756 414
113.584469303 7.68559256776 411
113.584469303 7.68559256776 408
113.584469303 7.68559256776 405
113.584469303 7.68559256776 402
112.878975705 7.63785596796 399
112.878975705 7.63785596796 396
112.878975705 7.63785596796 393
111.467988509 7.54238276836 390
111.467988509 7.54238276836 387
111.467988509 7.54238276836 384
110.762494911 7.49464616856 381
110.057001312 7.44690956876 378
109.351507714 7.39917296896 375
108.646014116 7.35143636916 372
108.646014116 7.35143636916 369
108.646014116 7.35143636916 366
107.940520518 7.30369976936 363
107.23502692 7.25596316956 360
107.23502692 7.25596316956 357
107.23502692 7.25596316956 354
107.23502692 7.25596316956 351
105.824039723 7.16048996996 348
105.118546125 7.11275337016 345
105.118546125 7.11275337016 342
104.413052527 7.06501677036 339
103.707558929 7.01728017056 336
104.413052527 7.06501677036 333
103.002065331 6.96954357076 330
103.002065331 6.96954357076 327
103.002065331 6.96954357076 324
101.591078135 6.87407037116 321
101.591078135 6.87407037116 318
101.591078135 6.87407037116 315
100.885584536 6.82633377136 312
100.885584536 6.82633377136 309
-28.2197439263 -1.90946399199 306
-35.2746799078 -2.38682998999 303
-38.0966543004 -2.57777638919 300
-40.9186286931 -2.76872278838 297
110.057001312 7.44690956876 294
107.23502692 7.25596316956 291
107.940520518 7.30369976936 288
109.351507714 7.39917296896 285
113.584469303 7.68559256776 282
115.700950098 7.82880236716 279
119.228418088 8.06748536616 276
120.639405285 8.16295856576 273
122.050392481 8.25843176535 270
123.461379677 8.35390496495 267
122.755886079 8.30616836515 264
109.351507714 7.39917296896 261
-45.151590282 -3.05514238718 258
-90.303180564 -6.11028477437 255
-91.7141677603 -6.20575797397 252
-94.5361421529 -6.39670437316 249
-100.885584536 -6.82633377136 246
-101.591078135 -6.87407037116 243
-103.707558929 -7.01728017056 240
-103.707558929 -7.01728017056 237
-97.3581165456 -6.58765077236 234
-95.2416357511 -6.44444097296 231
-98.7691037419 -6.68312397196 228
-95.2416357511 -6.44444097296 225
-96.6526229474 -6.53991417256 222
-95.2416357511 -6.44444097296 219
-93.8306485548 -6.34896777337 216
-95.2416357511 -6.44444097296 213
-93.8306485548 -6.34896777337 210
-93.8306485548 -6.34896777337 207
-94.5361421529 -6.39670437316 204
-95.2416357511 -6.44444097296 201
-94.5361421529 -6.39670437316 198
-94.5361421529 -6.39670437316 195
-95.9471293493 -6.49217757276 192
-93.8306485548 -6.34896777337 189
-63.4944238341 -4.29629398198 186
-96.6526229474 -6.53991417256 183
-93.1251549566 -6.30123117357 180
-95.2416357511 -6.44444097296 177
-93.8306485548 -6.34896777337 174
-90.303180564 -6.11028477437 171
-59.2614622451 -4.00987438318 168
-69.1383726193 -4.67818678037 165
-98.0636101437 -6.63538737216 162
-98.7691037419 -6.68312397196 159
-98.7691037419 -6.68312397196 156
-98.0636101437 -6.63538737216 153
-73.3713342083 -4.96460637917 147
-74.7823214046 -5.06007957877 144
-31.0417183189 -2.10041039119 138
-53.6175134599 -3.62798158478 135
-43.7406030857 -2.95966918758 132
-33.1581991133 -2.24362019059 129
-122.755886079 -8.30616836515 126
-126.988847668 -8.59258796395 123
-129.105328463 -8.73579776335 120
-129.810822061 -8.78353436315 117
-129.810822061 -8.78353436315 114
-130.516315659 -8.83127096295 111
-132.632796453 -8.97448076235 108
-135.454770846 -9.16542716155 105
-136.160264444 -9.21316376135 102
-136.160264444 -9.21316376135 99
-136.865758042 -9.26090036115 96
-129.810822061 -8.78353436315 93
-138.982238837 -9.40411016055 90
-139.687732435 -9.45184676035 87
-140.393226033 -9.49958336015 84
-140.393226033 -9.49958336015 81
]);  
 
rotate([90,0,4.83870967742])linear_extrude(height=1, center=false, convexity=14, twist=0) polygon([125.416436517 10.6168475223 513
126.121023239 10.6764927331 510
126.121023239 10.6764927331 507
125.416436517 10.6168475223 504
124.711849795 10.5572023115 501
124.711849795 10.5572023115 498
124.711849795 10.5572023115 495
124.711849795 10.5572023115 492
124.007263073 10.4975571007 489
123.302676351 10.4379118899 486
123.302676351 10.4379118899 483
122.598089629 10.3782666791 480
121.893502907 10.3186214683 477
121.893502907 10.3186214683 474
121.188916185 10.2589762575 471
121.893502907 10.3186214683 468
120.484329463 10.1993310467 465
120.484329463 10.1993310467 462
119.075156019 10.0800406251 459
119.075156019 10.0800406251 456
119.075156019 10.0800406251 453
119.075156019 10.0800406251 450
119.075156019 10.0800406251 447
119.075156019 10.0800406251 444
118.370569297 10.0203954143 441
118.370569297 10.0203954143 438
116.961395853 9.90110499269 435
116.961395853 9.90110499269 432
116.256809131 9.84145978189 429
116.256809131 9.84145978189 426
115.552222409 9.78181457109 423
114.847635687 9.72216936029 420
114.847635687 9.72216936029 417
114.143048965 9.66252414949 414
114.143048965 9.66252414949 411
113.438462243 9.6028789387 408
113.438462243 9.6028789387 405
112.733875521 9.5432337279 402
112.733875521 9.5432337279 399
112.733875521 9.5432337279 396
112.029288799 9.4835885171 393
111.324702077 9.4239433063 390
111.324702077 9.4239433063 387
111.324702077 9.4239433063 384
111.324702077 9.4239433063 381
109.915528633 9.3046528847 378
109.210941911 9.2450076739 375
108.506355189 9.1853624631 372
108.506355189 9.1853624631 369
108.506355189 9.1853624631 366
107.801768467 9.1257172523 363
107.097181745 9.0660720415 360
107.097181745 9.0660720415 357
107.097181745 9.0660720415 354
107.097181745 9.0660720415 351
106.392595023 9.0064268307 348
105.688008301 8.9467816199 345
104.983421579 8.8871364091 342
104.983421579 8.8871364091 339
104.278834857 8.8274911983 336
104.278834857 8.8274911983 333
102.869661413 8.70820077671 330
102.869661413 8.70820077671 327
102.165074691 8.64855556591 324
101.460487969 8.58891035511 321
101.460487969 8.58891035511 318
101.460487969 8.58891035511 315
100.755901247 8.52926514431 312
100.755901247 8.52926514431 309
-28.1834688803 -2.38580843197 306
-34.5247493783 -2.92261532917 303
-38.7522697104 -3.28048659396 300
-40.8660298764 -3.45942222636 297
110.620115355 9.3642980955 294
106.392595023 9.0064268307 291
107.097181745 9.0660720415 288
109.915528633 9.3046528847 285
114.143048965 9.66252414949 282
116.256809131 9.84145978189 279
119.779742741 10.1396858359 276
121.893502907 10.3186214683 273
122.598089629 10.3782666791 270
124.711849795 10.5572023115 267
124.007263073 10.4975571007 264
109.915528633 9.3046528847 261
-46.5027236525 -3.93658391276 258
-93.0054473049 -7.87316782551 255
-92.3008605829 -7.81352261472 252
-92.3008605829 -7.81352261472 249
-97.937554359 -8.29068430111 246
-103.574248135 -8.7678459875 243
-103.574248135 -8.7678459875 240
-103.574248135 -8.7678459875 237
-96.528380915 -8.17139387951 234
-96.528380915 -8.17139387951 231
-97.232967637 -8.23103909031 228
-97.232967637 -8.23103909031 225
-95.119207471 -8.05210345791 222
-95.119207471 -8.05210345791 219
-95.119207471 -8.05210345791 216
-96.528380915 -8.17139387951 213
-95.119207471 -8.05210345791 210
-95.119207471 -8.05210345791 207
-95.119207471 -8.05210345791 204
-94.414620749 -7.99245824711 201
-96.528380915 -8.17139387951 198
-95.119207471 -8.05210345791 195
-96.528380915 -8.17139387951 192
-73.9816058107 -6.26274713393 189
-97.232967637 -8.23103909031 186
-94.414620749 -7.99245824711 183
-90.1871004169 -7.63458698232 180
-93.0054473049 -7.87316782551 177
-69.0494987567 -5.84523065834 174
-47.9118970965 -4.05587433436 171
-83.1412331968 -7.03813487432 168
-88.7779269729 -7.51529656072 165
-99.346727803 -8.40997472271 162
-98.642141081 -8.35032951191 159
-97.937554359 -8.29068430111 156
-97.232967637 -8.23103909031 153
-76.0953659768 -6.44168276633 147
-74.6861925328 -6.32239234473 144
-29.5926423243 -2.50509885357 138
-54.2531775945 -4.59268123155 135
-42.9797900424 -3.63835785876 132
-31.0018157683 -2.62438927517 129
-27.4788821583 -2.32616322117 126
-126.825609961 -10.7361379439 123
-128.939370127 -10.9150735763 120
-128.939370127 -10.9150735763 117
-129.643956849 -10.9747187871 114
-129.643956849 -10.9747187871 111
-132.462303737 -11.2132996303 108
-135.985237347 -11.5115256843 105
-137.394410791 -11.6308161059 102
-138.098997513 -11.6904613167 99
-139.508170957 -11.8097517383 96
-139.508170957 -11.8097517383 93
-140.212757679 -11.8693969491 90
-139.508170957 -11.8097517383 87
-139.508170957 -11.8097517383 84
-139.508170957 -11.8097517383 81
]);  
 
rotate([90,0,5.8064516129])linear_extrude(height=1, center=false, convexity=14, twist=0) polygon([125.922713249 12.8050883668 513
125.922713249 12.8050883668 510
125.922713249 12.8050883668 507
125.219234404 12.7335515603 504
124.515755559 12.6620147538 501
124.515755559 12.6620147538 498
124.515755559 12.6620147538 495
124.515755559 12.6620147538 492
124.515755559 12.6620147538 489
123.108797869 12.5189411408 486
123.108797869 12.5189411408 483
122.405319024 12.4474043342 480
121.701840179 12.3758675277 477
121.701840179 12.3758675277 474
121.701840179 12.3758675277 471
121.701840179 12.3758675277 468
120.294882489 12.2327939147 465
120.294882489 12.2327939147 462
119.591403644 12.1612571082 459
118.887924799 12.0897203016 456
118.887924799 12.0897203016 453
118.887924799 12.0897203016 450
118.887924799 12.0897203016 447
118.887924799 12.0897203016 444
118.184445954 12.0181834951 441
117.480967109 11.9466466886 438
116.777488264 11.8751098821 435
116.777488264 11.8751098821 432
116.074009419 11.8035730756 429
116.074009419 11.8035730756 426
115.370530574 11.732036269 423
114.667051729 11.6604994625 420
114.667051729 11.6604994625 417
113.963572884 11.588962656 414
113.963572884 11.588962656 411
113.260094039 11.5174258495 408
113.260094039 11.5174258495 405
112.556615194 11.445889043 402
112.556615194 11.445889043 399
112.556615194 11.445889043 396
112.556615194 11.445889043 393
111.149657504 11.3028154299 390
111.149657504 11.3028154299 387
111.149657504 11.3028154299 384
110.446178659 11.2312786234 381
109.742699815 11.1597418169 378
109.742699815 11.1597418169 375
108.335742125 11.0166682039 372
108.335742125 11.0166682039 369
108.335742125 11.0166682039 366
107.63226328 10.9451313973 363
106.928784435 10.8735945908 360
106.928784435 10.8735945908 357
106.928784435 10.8735945908 354
106.928784435 10.8735945908 351
106.22530559 10.8020577843 348
105.521826745 10.7305209778 345
104.8183479 10.6589841713 342
104.114869055 10.5874473647 339
104.114869055 10.5874473647 336
104.114869055 10.5874473647 333
102.707911365 10.4443737517 330
102.707911365 10.4443737517 327
102.00443252 10.3728369452 324
101.300953675 10.3013001387 321
101.300953675 10.3013001387 318
101.300953675 10.3013001387 315
100.59747483 10.2297633322 312
100.59747483 10.2297633322 309
-28.8426326436 -2.93300906726 306
-35.1739422482 -3.57684032593 303
-37.9878576281 -3.862987552 300
-41.5052518529 -4.2206715846 297
112.556615194 11.445889043 294
106.22530559 10.8020577843 291
107.63226328 10.9451313973 288
111.149657504 11.3028154299 285
114.667051729 11.6604994625 282
117.480967109 11.9466466886 279
120.998361334 12.3043307212 276
123.108797869 12.5189411408 273
124.515755559 12.6620147538 270
125.219234404 12.7335515603 267
125.219234404 12.7335515603 264
113.260094039 11.5174258495 261
-93.5626863803 -9.51439526697 258
-94.9696440703 -9.65746888001 255
-97.7835594501 -9.94361610608 252
-99.19051714 -10.0866897191 249
-100.59747483 -10.2297633322 246
-104.8183479 -10.6589841713 243
-106.22530559 -10.8020577843 240
-106.22530559 -10.8020577843 237
-108.335742125 -11.0166682039 234
-68.2374479616 -6.9390702323 231
-102.00443252 -10.3728369452 228
-102.00443252 -10.3728369452 225
-99.893995985 -10.1582265256 222
-98.4870382951 -10.0151529126 219
-94.9696440703 -9.65746888001 216
-97.7835594501 -9.94361610608 213
-96.3766017602 -9.80054249305 210
-99.893995985 -10.1582265256 207
-99.19051714 -10.0866897191 204
-93.5626863803 -9.51439526697 201
-96.3766017602 -9.80054249305 198
-99.893995985 -10.1582265256 195
-72.4583210314 -7.36829107141 192
-73.1617998763 -7.43982787793 189
-94.9696440703 -9.65746888001 186
-93.5626863803 -9.51439526697 183
-92.8592075354 -9.44285846045 180
-73.8652787213 -7.51136468445 177
-71.7548421864 -7.29675426489 174
-92.8592075354 -9.44285846045 171
-83.7139825508 -8.51287997571 168
-87.2313767756 -8.8705640083 165
-99.19051714 -10.0866897191 162
-99.19051714 -10.0866897191 159
-99.19051714 -10.0866897191 156
-98.4870382951 -10.0151529126 153
-77.3826729461 -7.86904871704 147
-73.8652787213 -7.51136468445 144
-27.4356749536 -2.78993545422 138
-56.9817864422 -5.794481328 135
-44.3191672328 -4.50681881067 132
-29.5461114885 -3.00454587378 129
-26.7321961087 -2.71839864771 126
-126.626192094 -12.8766251733 123
-128.736628629 -13.0912355929 120
-128.736628629 -13.0912355929 117
-129.440107474 -13.1627723994 114
-129.440107474 -13.1627723994 111
-131.550544008 -13.377382819 108
-135.067938233 -13.7350668516 105
-137.178374768 -13.9496772711 102
-137.881853613 -14.0212140776 99
-138.585332458 -14.0927508842 96
-139.288811303 -14.1642876907 93
-139.992290148 -14.2358244972 90
-139.288811303 -14.1642876907 87
-139.992290148 -14.2358244972 84
]);  
 
rotate([90,0,6.77419354839])linear_extrude(height=1, center=false, convexity=14, twist=0) polygon([126.390650954 15.0134390251 513
124.986310388 14.8466230359 510
125.688480671 14.9300310305 507
124.986310388 14.8466230359 504
124.284140105 14.7632150413 501
124.284140105 14.7632150413 498
124.284140105 14.7632150413 495
124.284140105 14.7632150413 492
124.284140105 14.7632150413 489
122.879799539 14.5963990522 486
122.879799539 14.5963990522 483
122.177629256 14.5129910576 480
121.475458973 14.429583063 477
121.475458973 14.429583063 474
121.475458973 14.429583063 471
120.77328869 14.3461750684 468
120.071118407 14.2627670738 465
120.071118407 14.2627670738 462
119.368948123 14.1793590793 459
118.66677784 14.0959510847 456
118.66677784 14.0959510847 453
118.66677784 14.0959510847 450
118.66677784 14.0959510847 447
118.66677784 14.0959510847 444
117.964607557 14.0125430901 441
117.262437274 13.9291350955 438
116.560266991 13.8457271009 435
116.560266991 13.8457271009 432
115.858096708 13.7623191063 429
115.858096708 13.7623191063 426
115.155926425 13.6789111118 423
114.453756142 13.5955031172 420
114.453756142 13.5955031172 417
113.049415576 13.428687128 414
113.751585859 13.5120951226 411
113.751585859 13.5120951226 408
113.049415576 13.428687128 405
112.347245293 13.3452791334 402
112.347245293 13.3452791334 399
112.347245293 13.3452791334 396
112.347245293 13.3452791334 393
110.942904727 13.1784631443 390
110.942904727 13.1784631443 387
110.240734443 13.0950551497 384
110.240734443 13.0950551497 381
109.53856416 13.0116471551 378
108.836393877 12.9282391605 375
108.134223594 12.8448311659 372
108.134223594 12.8448311659 369
108.134223594 12.8448311659 366
107.432053311 12.7614231713 363
106.729883028 12.6780151767 360
106.729883028 12.6780151767 357
106.729883028 12.6780151767 354
106.729883028 12.6780151767 351
105.325542462 12.5111991876 348
105.325542462 12.5111991876 345
104.623372179 12.427791193 342
103.921201896 12.3443831984 339
103.219031613 12.2609752038 336
103.921201896 12.3443831984 333
102.51686133 12.1775672092 330
102.51686133 12.1775672092 327
102.51686133 12.1775672092 324
101.112520763 12.0107512201 321
101.112520763 12.0107512201 318
101.112520763 12.0107512201 315
100.41035048 11.9273432255 312
100.41035048 11.9273432255 309
-28.7889816062 -3.41972777794 306
-34.4063438709 -4.08699173461 303
-38.6193655694 -4.58743970211 300
-41.4280467017 -4.92107168045 297
101.814691046 12.0941592147 294
106.027712745 12.5946071822 291
108.134223594 12.8448311659 288
111.64507501 13.2618711388 285
115.155926425 13.6789111118 282
117.964607557 14.0125430901 279
121.475458973 14.429583063 276
122.177629256 14.5129910576 273
124.284140105 14.7632150413 270
125.688480671 14.9300310305 267
126.390650954 15.0134390251 264
-89.1756259511 -10.5928153122 261
-93.3886476495 -11.0932632797 258
-94.7929882157 -11.2600792688 255
-96.1973287818 -11.426895258 252
-99.0060099142 -11.7605272363 249
-101.112520763 -12.0107512201 246
-103.921201896 -12.3443831984 243
-61.790984911 -7.33990352338 240
-105.325542462 -12.5111991876 237
-63.1953254771 -7.50671951255 234
-63.1953254771 -7.50671951255 231
-62.493155194 -7.42331151796 228
-101.814691046 -12.0941592147 225
-101.814691046 -12.0941592147 222
-67.4083471756 -8.00716748005 219
-64.5996660433 -7.67353550172 216
-104.623372179 -12.427791193 213
-103.219031613 -12.2609752038 210
-99.0060099142 -11.7605272363 207
-102.51686133 -12.1775672092 204
-101.112520763 -12.0107512201 201
-101.112520763 -12.0107512201 198
-100.41035048 -11.9273432255 195
-73.0257094402 -8.67443143672 192
-95.4951584988 -11.3434872634 189
-70.2170283079 -8.34079945839 186
-95.4951584988 -11.3434872634 183
-68.8126877418 -8.17398346922 180
-91.2821368003 -10.8430392959 177
-70.2170283079 -8.34079945839 174
-91.2821368003 -10.8430392959 171
-84.9626042526 -10.0923673446 168
-87.0691151018 -10.3425913284 165
-99.0060099142 -11.7605272363 162
-99.0060099142 -11.7605272363 159
-99.0060099142 -11.7605272363 156
-98.3038396311 -11.6771192417 153
-77.9409014218 -9.25828739881 147
-73.7278797233 -8.75783943131 144
-70.2170283079 -8.34079945839 141
-56.8757929294 -6.75604756129 138
-28.0868113232 -3.33631978335 135
-43.5345575509 -5.1712956642 132
-28.7889816062 -3.41972777794 129
-25.2781301909 -3.00268780502 126
-125.688480671 -14.9300310305 123
-128.497161803 -15.2636630088 120
-128.497161803 -15.2636630088 117
-129.199332087 -15.3470710034 114
-129.199332087 -15.3470710034 111
-131.305842936 -15.5972949872 108
-135.518864634 -16.0977429547 105
-136.221034917 -16.1811509493 102
-136.9232052 -16.2645589439 99
-138.327545767 -16.431374933 96
-139.02971605 -16.5147829276 93
-139.731886333 -16.5981909222 90
-139.731886333 -16.5981909222 87
-139.02971605 -16.5147829276 84
]);  
 
rotate([90,0,7.74193548387])linear_extrude(height=1, center=false, convexity=14, twist=0) polygon([125.418392327 17.0507145314 513
124.717730918 16.9554591429 510
125.418392327 17.0507145314 507
124.717730918 16.9554591429 504
124.017069508 16.8602037545 501
124.017069508 16.8602037545 498
123.316408098 16.764948366 495
124.017069508 16.8602037545 492
123.316408098 16.764948366 489
122.615746689 16.6696929776 486
122.615746689 16.6696929776 483
122.615746689 16.6696929776 480
121.214423869 16.4791822007 477
121.214423869 16.4791822007 474
121.214423869 16.4791822007 471
120.51376246 16.3839268123 468
119.81310105 16.2886714238 465
120.51376246 16.3839268123 462
119.11243964 16.1934160354 459
118.411778231 16.0981606469 456
118.411778231 16.0981606469 453
118.411778231 16.0981606469 450
118.411778231 16.0981606469 447
118.411778231 16.0981606469 444
118.411778231 16.0981606469 441
117.711116821 16.0029052585 438
117.010455412 15.9076498701 435
115.609132592 15.7171390932 432
115.609132592 15.7171390932 429
115.609132592 15.7171390932 426
114.908471183 15.6218837047 423
114.207809773 15.5266283163 420
113.507148363 15.4313729278 417
113.507148363 15.4313729278 414
113.507148363 15.4313729278 411
112.806486954 15.3361175394 408
112.806486954 15.3361175394 405
112.105825544 15.240862151 402
112.105825544 15.240862151 399
111.405164134 15.1456067625 396
110.704502725 15.0503513741 393
111.405164134 15.1456067625 390
110.704502725 15.0503513741 387
110.704502725 15.0503513741 384
110.704502725 15.0503513741 381
109.303179905 14.8598405972 378
109.303179905 14.8598405972 375
107.901857086 14.6693298203 372
107.901857086 14.6693298203 369
107.901857086 14.6693298203 366
107.201195676 14.5740744318 363
106.500534267 14.4788190434 360
106.500534267 14.4788190434 357
106.500534267 14.4788190434 354
106.500534267 14.4788190434 351
105.099211447 14.2883082665 348
105.099211447 14.2883082665 345
105.099211447 14.2883082665 342
103.697888628 14.0977974896 339
103.697888628 14.0977974896 336
103.697888628 14.0977974896 333
102.296565809 13.9072867127 330
102.296565809 13.9072867127 327
101.595904399 13.8120313243 324
101.595904399 13.8120313243 321
100.89524299 13.7167759359 318
100.89524299 13.7167759359 315
100.19458158 13.6215205474 312
100.19458158 13.6215205474 309
-28.7271177956 -3.90547092618 306
-34.3324090728 -4.66751403373 303
-38.5363775307 -5.23904636439 300
-41.3390231693 -5.62006791816 297
100.89524299 13.7167759359 294
108.602518496 14.7645852087 291
108.602518496 14.7645852087 288
111.405164134 15.1456067625 285
138.030297701 18.7653115234 282
118.411778231 16.0981606469 279
121.915085279 16.5744375892 276
124.017069508 16.8602037545 273
121.214423869 16.4791822007 270
126.819715147 17.2412253083 267
126.119053737 17.1459699198 264
-90.3853218448 -12.2879451092 261
-37.8357161211 -5.14379097595 258
-93.8886288931 -12.7642220514 255
-95.2899517124 -12.9547328283 252
-96.6912745317 -13.1452436052 249
-102.997227219 -14.0025421012 246
-103.697888628 -14.0977974896 243
-105.099211447 -14.2883082665 240
-103.697888628 -14.0977974896 237
-105.099211447 -14.2883082665 234
-104.398550038 -14.1930528781 231
-104.398550038 -14.1930528781 228
-105.099211447 -14.2883082665 225
-104.398550038 -14.1930528781 222
-103.697888628 -14.0977974896 219
-104.398550038 -14.1930528781 216
-104.398550038 -14.1930528781 213
-105.099211447 -14.2883082665 210
-105.099211447 -14.2883082665 207
-105.799872857 -14.383563655 204
-105.099211447 -14.2883082665 201
-104.398550038 -14.1930528781 198
-104.398550038 -14.1930528781 195
-100.89524299 -13.7167759359 192
-100.19458158 -13.6215205474 189
-98.092597351 -13.3357543821 186
-67.964156736 -9.23977267902 183
-59.5562198202 -8.09670801769 180
-64.4608496878 -8.7634957368 177
-65.1615110974 -8.85875112524 174
-91.0859832545 -12.3832004977 171
-88.9839990255 -12.0974343323 168
-89.6846604352 -12.1926897208 165
-77.0727550615 -10.4780927288 162
-99.4939201703 -13.526265159 159
-100.89524299 -13.7167759359 156
-98.7932587606 -13.4310097705 153
-98.092597351 -13.3357543821 150
-76.3720936518 -10.3828373403 147
-81.977384929 -11.1448804479 144
-74.9707708325 -10.1923265635 141
-26.6251335667 -3.61970476085 138
-28.026456386 -3.81021553774 135
-49.0462986755 -6.66787719104 132
-27.3257949763 -3.7149601493 129
-24.5231493377 -3.33393859552 126
-125.418392327 -17.0507145314 123
-128.221037966 -17.4317360852 120
-128.221037966 -17.4317360852 117
-128.921699376 -17.5269914736 114
-128.921699376 -17.5269914736 111
-131.023683605 -17.8127576389 108
-134.526990653 -18.2890345811 105
-135.928313472 -18.479545358 102
-136.628974882 -18.5748007465 99
-138.030297701 -18.7653115234 96
-138.730959111 -18.8605669118 93
-138.730959111 -18.8605669118 90
-138.730959111 -18.8605669118 87
-139.43162052 -18.9558223002 84
-133.125667833 -18.0985238043 81
]);  
 
rotate([90,0,8.70967741935])linear_extrude(height=1, center=false, convexity=14, twist=0) polygon([125.811477922 19.2736095 513
125.112525267 19.1665338917 510
125.112525267 19.1665338917 507
124.413572611 19.0594582834 504
123.714619956 18.952382675 501
123.714619956 18.952382675 498
123.015667301 18.8453070667 495
123.714619956 18.952382675 492
123.015667301 18.8453070667 489
122.316714646 18.7382314584 486
122.316714646 18.7382314584 483
121.617761991 18.63115585 480
120.918809336 18.5240802417 477
120.918809336 18.5240802417 474
120.219856681 18.4170046334 471
120.219856681 18.4170046334 468
119.520904026 18.309929025 465
120.219856681 18.4170046334 462
119.520904026 18.309929025 459
118.122998715 18.0957778084 456
118.122998715 18.0957778084 453
118.122998715 18.0957778084 450
118.122998715 18.0957778084 447
118.122998715 18.0957778084 444
118.122998715 18.0957778084 441
116.725093405 17.8816265917 438
116.725093405 17.8816265917 435
116.02614075 17.7745509834 432
115.327188095 17.667475375 429
115.327188095 17.667475375 426
114.62823544 17.5603997667 423
113.929282785 17.4533241584 420
113.929282785 17.4533241584 417
113.23033013 17.34624855 414
113.23033013 17.34624855 411
112.531377474 17.2391729417 408
112.531377474 17.2391729417 405
112.531377474 17.2391729417 402
111.832424819 17.1320973334 399
111.133472164 17.025021725 396
111.832424819 17.1320973334 393
110.434519509 16.9179461167 390
110.434519509 16.9179461167 387
109.735566854 16.8108705084 384
109.735566854 16.8108705084 381
109.036614199 16.7037949 378
109.036614199 16.7037949 375
107.638708889 16.4896436834 372
107.638708889 16.4896436834 369
107.638708889 16.4896436834 366
106.939756233 16.382568075 363
106.240803578 16.2754924667 360
106.240803578 16.2754924667 357
106.240803578 16.2754924667 354
106.240803578 16.2754924667 351
105.541850923 16.1684168584 348
104.842898268 16.06134125 345
104.143945613 15.9542656417 342
103.444992958 15.8471900334 339
103.444992958 15.8471900334 336
103.444992958 15.8471900334 333
102.047087648 15.6330388167 330
102.047087648 15.6330388167 327
101.348134992 15.5259632084 324
101.348134992 15.5259632084 321
100.649182337 15.4188876 318
100.649182337 15.4188876 315
99.9502296822 15.3118119917 312
99.9502296822 15.3118119917 309
-27.2591535497 -4.17594872501 306
-34.2486801009 -5.24670480834 303
-38.4423960316 -5.88915845834 300
-41.2382066521 -6.31746089168 297
105.541850923 16.1684168584 294
107.638708889 16.4896436834 291
108.337661544 16.5967192917 288
111.832424819 17.1320973334 285
116.02614075 17.7745509834 282
118.82195137 18.2028534167 279
122.316714646 18.7382314584 276
124.413572611 19.0594582834 273
125.811477922 19.2736095 270
127.908335887 19.594836325 267
127.209383232 19.4877607167 264
-91.5627978208 -14.0269046917 261
-92.2617504759 -14.1339803 258
-93.6596557861 -14.3481315167 255
-94.3586084413 -14.455207125 252
-95.7565137515 -14.6693583417 249
-99.2512770271 -15.2047363834 246
-104.842898268 -16.06134125 243
-104.842898268 -16.06134125 240
-103.444992958 -15.8471900334 237
-103.444992958 -15.8471900334 234
-104.143945613 -15.9542656417 231
-104.842898268 -16.06134125 228
-104.842898268 -16.06134125 225
-104.143945613 -15.9542656417 222
-103.444992958 -15.8471900334 219
-104.143945613 -15.9542656417 216
-104.143945613 -15.9542656417 213
-104.842898268 -16.06134125 210
-104.143945613 -15.9542656417 207
-58.7120230301 -8.99435110001 204
-102.746040303 -15.740114425 201
-60.1099283404 -9.20850231668 198
-57.3141177199 -8.78019988335 195
-102.746040303 -15.740114425 192
-95.7565137515 -14.6693583417 189
-95.7565137515 -14.6693583417 186
-61.5078336506 -9.42265353335 183
-90.8638451657 -13.9198290834 180
-93.6596557861 -14.3481315167 177
-65.0025969262 -9.95803157501 174
-94.3586084413 -14.455207125 171
-90.1648925105 -13.812753475 168
-89.4659398554 -13.7056778667 165
-93.6596557861 -14.3481315167 162
-99.9502296822 -15.3118119917 159
-102.047087648 -15.6330388167 156
-99.2512770271 -15.2047363834 153
-98.552324372 -15.097660775 150
-99.2512770271 -15.2047363834 147
-61.5078336506 -9.42265353335 144
-81.078507994 -12.4207705667 141
-62.9057389608 -9.63680475001 138
-28.6570588599 -4.39009994167 135
-48.2277332033 -7.38821697501 132
-27.2591535497 -4.17594872501 129
-23.065437619 -3.53349507501 126
-125.811477922 -19.2736095 123
-127.908335887 -19.594836325 120
-127.908335887 -19.594836325 117
-128.607288542 -19.7019119334 114
-128.607288542 -19.7019119334 111
-130.704146508 -20.0231387584 108
-133.499957128 -20.4514411917 105
-135.596815093 -20.7726680167 102
-136.295767748 -20.879743625 99
-137.693673059 -21.0938948417 96
-138.392625714 -21.20097045 93
-139.091578369 -21.3080460584 90
-139.091578369 -21.3080460584 87
-138.392625714 -21.20097045 84
-132.102051818 -20.237289975 81
]);  
 
rotate([90,0,9.67741935484])linear_extrude(height=1, center=false, convexity=14, twist=0) polygon([124.770966745 21.2768855213 513
124.770966745 21.2768855213 510
124.770966745 21.2768855213 507
123.376877731 21.0391549569 504
123.376877731 21.0391549569 501
123.376877731 21.0391549569 498
123.376877731 21.0391549569 495
123.376877731 21.0391549569 492
123.376877731 21.0391549569 489
121.982788717 20.8014243924 486
121.982788717 20.8014243924 483
121.982788717 20.8014243924 480
120.588699703 20.5636938279 477
120.588699703 20.5636938279 474
120.588699703 20.5636938279 471
119.891655196 20.4448285456 468
119.194610689 20.3259632634 465
119.194610689 20.3259632634 462
119.194610689 20.3259632634 459
117.800521676 20.0882326989 456
117.800521676 20.0882326989 453
117.800521676 20.0882326989 450
117.800521676 20.0882326989 447
117.800521676 20.0882326989 444
117.103477169 19.9693674167 441
117.103477169 19.9693674167 438
115.709388155 19.7316368522 435
115.012343648 19.61277157 432
115.012343648 19.61277157 429
114.315299141 19.4939062877 426
114.315299141 19.4939062877 423
113.618254634 19.3750410055 420
113.618254634 19.3750410055 417
112.921210127 19.2561757232 414
112.22416562 19.137310441 411
112.22416562 19.137310441 408
112.22416562 19.137310441 405
111.527121113 19.0184451587 402
111.527121113 19.0184451587 399
111.527121113 19.0184451587 396
110.830076606 18.8995798765 393
110.133032099 18.7807145943 390
110.133032099 18.7807145943 387
109.435987592 18.661849312 384
108.738943085 18.5429840298 381
108.738943085 18.5429840298 378
108.738943085 18.5429840298 375
107.344854071 18.3052534653 372
107.344854071 18.3052534653 369
106.647809564 18.186388183 366
106.647809564 18.186388183 363
106.647809564 18.186388183 360
105.950765057 18.0675229008 357
105.950765057 18.0675229008 354
105.25372055 17.9486576186 351
104.556676043 17.8297923363 348
104.556676043 17.8297923363 345
103.859631536 17.7109270541 342
103.162587029 17.5920617718 339
102.465542523 17.4731964896 336
101.768498016 17.3543312074 333
101.768498016 17.3543312074 330
101.768498016 17.3543312074 327
101.071453509 17.2354659251 324
100.374409002 17.1166006429 321
100.374409002 17.1166006429 318
100.374409002 17.1166006429 315
99.6773644947 16.9977353606 312
99.6773644947 16.9977353606 309
-27.8817802782 -4.75461128969 306
-34.1551808408 -5.82439882987 303
-38.3374478826 -6.53759052332 300
-40.4285814034 -6.89418637004 297
107.344854071 18.3052534653 294
104.556676043 17.8297923363 291
109.435987592 18.661849312 288
112.22416562 19.137310441 285
117.103477169 19.9693674167 282
119.194610689 20.3259632634 279
122.679833224 20.9202896746 276
125.468011252 21.3957508036 273
126.165055759 21.5146160858 270
128.953233787 21.9900772148 267
128.25618928 21.8712119326 264
-18.1231571809 -3.0904973383 261
-88.5246523834 -15.0958908448 258
-25.7906467574 -4.39801544296 255
-92.0098749182 -15.690217256 252
-90.6157859043 -15.4524866915 249
-42.5197149243 -7.25078221677 246
-99.6773644947 -16.9977353606 243
-42.5197149243 -7.25078221677 240
-101.071453509 -17.2354659251 237
-47.399026473 -8.08283919247 234
-104.556676043 -17.8297923363 231
-101.071453509 -17.2354659251 228
-44.6108484452 -7.6073780635 225
-46.0049374591 -7.84510862798 222
-34.1551808408 -5.82439882987 219
-41.1256259104 -7.01305165229 216
-45.3078929521 -7.72624334574 213
-36.2463143617 -6.18099467659 210
-55.7635605565 -9.50922257937 207
-100.374409002 -17.1166006429 204
-57.1576495704 -9.74695314386 201
-99.6773644947 -16.9977353606 198
-98.2832754808 -16.7600047961 195
-56.4606050634 -9.62808786161 192
-96.8891864669 -16.5222742317 189
-42.5197149243 -7.25078221677 186
-94.798052946 -16.1656783849 183
-94.1010084391 -16.0468131027 180
-44.6108484452 -7.6073780635 177
-92.0098749182 -15.690217256 174
-91.3128304112 -15.5713519737 171
-55.7635605565 -9.50922257937 168
-92.0098749182 -15.690217256 165
-92.7069194251 -15.8090825382 162
-78.766029286 -13.4317768934 159
-101.768498016 -17.3543312074 156
-98.9803199877 -16.8788700784 153
-99.6773644947 -16.9977353606 150
-98.2832754808 -16.7600047961 147
-58.5517385843 -9.98468370834 144
-86.4335188625 -14.739294998 141
-62.734005626 -10.6978754018 138
-27.1847357713 -4.63574600744 135
-69.0074061886 -11.767662942 132
-23.0024687295 -3.92255431399 129
-23.0024687295 -3.92255431399 126
-125.468011252 -21.3957508036 123
-126.862100266 -21.6334813681 120
-126.862100266 -21.6334813681 117
-128.25618928 -21.8712119326 114
-128.953233787 -21.9900772148 111
-130.347322801 -22.2278077793 108
-133.832545336 -22.8221341905 105
-135.226634349 -23.059864755 102
-135.923678856 -23.1787300372 99
-138.014812377 -23.5353258839 96
-137.31776787 -23.4164606017 93
-138.014812377 -23.5353258839 90
-138.014812377 -23.5353258839 87
-138.711856884 -23.6541911662 84
-131.741411815 -22.4655383438 81
]);  
 
rotate([90,0,10.6451612903])linear_extrude(height=1, center=false, convexity=14, twist=0) polygon([125.088751711 23.5117884369 513
123.698876692 23.2505463431 510
123.698876692 23.2505463431 507
123.003939182 23.1199252963 504
123.003939182 23.1199252963 501
123.003939182 23.1199252963 498
123.003939182 23.1199252963 495
123.003939182 23.1199252963 492
123.003939182 23.1199252963 489
122.309001673 22.9893042494 486
121.614064163 22.8586832025 483
120.919126654 22.7280621557 480
120.224189144 22.5974411088 477
120.224189144 22.5974411088 474
120.224189144 22.5974411088 471
119.529251635 22.4668200619 468
118.834314125 22.336199015 465
118.834314125 22.336199015 462
118.834314125 22.336199015 459
117.444439106 22.0749569213 456
117.444439106 22.0749569213 453
117.444439106 22.0749569213 450
117.444439106 22.0749569213 447
117.444439106 22.0749569213 444
116.749501596 21.9443358744 441
116.749501596 21.9443358744 438
116.054564087 21.8137148276 435
115.359626577 21.6830937807 432
114.664689068 21.5524727338 429
113.969751558 21.4218516869 426
113.969751558 21.4218516869 423
113.274814049 21.2912306401 420
113.274814049 21.2912306401 417
112.579876539 21.1606095932 414
111.88493903 21.0299885463 411
111.88493903 21.0299885463 408
111.88493903 21.0299885463 405
111.19000152 20.8993674995 402
111.19000152 20.8993674995 399
111.19000152 20.8993674995 396
110.495064011 20.7687464526 393
109.800126501 20.6381254057 390
109.800126501 20.6381254057 387
109.105188992 20.5075043588 384
108.410251482 20.376883312 381
108.410251482 20.376883312 378
107.715313973 20.2462622651 375
107.020376463 20.1156412182 372
107.020376463 20.1156412182 369
106.325438954 19.9850201714 366
106.325438954 19.9850201714 363
106.325438954 19.9850201714 360
105.630501444 19.8543991245 357
105.630501444 19.8543991245 354
105.630501444 19.8543991245 351
104.240626425 19.5931570307 348
104.240626425 19.5931570307 345
103.545688916 19.4625359839 342
102.850751406 19.331914937 339
102.850751406 19.331914937 336
101.460876387 19.0706728433 333
101.460876387 19.0706728433 330
101.460876387 19.0706728433 327
100.765938878 18.9400517964 324
100.765938878 18.9400517964 321
100.071001368 18.8094307495 318
100.071001368 18.8094307495 315
99.3760638589 18.6788097026 312
99.3760638589 18.6788097026 309
-28.4924378896 -5.35546292174 306
-33.3570004561 -6.26981024984 303
-37.5266255132 -7.05353653107 300
-41.0013130607 -7.70664176542 297
108.410251482 20.376883312 294
124.393814201 23.38116739 291
109.105188992 20.5075043588 288
134.817876844 25.3404830931 285
117.444439106 22.0749569213 282
120.919126654 22.7280621557 279
123.698876692 23.2505463431 276
120.919126654 22.7280621557 273
127.868501749 24.0342726244 270
129.258376768 24.2955147181 267
128.563439258 24.1648936712 264
120.224189144 22.5974411088 261
-92.4266887639 -17.3725992339 258
-53.5101882317 -10.0578206091 255
-97.9861888399 -18.4175676089 252
-100.071001368 -18.8094307495 249
-101.460876387 -19.0706728433 246
-103.545688916 -19.4625359839 243
-105.630501444 -19.8543991245 240
-105.630501444 -19.8543991245 237
-109.105188992 -20.5075043588 234
-108.410251482 -20.376883312 231
-66.0190634028 -12.4089994528 228
-65.3241258933 -12.2783784059 225
-69.4937509503 -13.0621046872 222
-66.7140009123 -12.5396204997 219
-68.7988134408 -12.9314836403 216
-68.7988134408 -12.9314836403 213
-100.765938878 -18.9400517964 210
-99.3760638589 -18.6788097026 207
-98.6811263494 -18.5481886558 204
-72.2735009883 -13.5845888746 201
-75.0532510263 -14.1070730621 198
-100.071001368 -18.8094307495 195
-102.850751406 -19.331914937 192
-101.460876387 -19.0706728433 189
-78.5279385738 -14.7601782965 186
-98.6811263494 -18.5481886558 183
-96.5963138209 -18.1563255152 180
-73.6633760073 -13.8458309684 177
-98.6811263494 -18.5481886558 174
-99.3760638589 -18.6788097026 171
-75.0532510263 -14.1070730621 168
-95.2064388019 -17.8950834214 165
-97.9861888399 -18.4175676089 162
-100.765938878 -18.9400517964 159
-101.460876387 -19.0706728433 156
-100.071001368 -18.8094307495 153
-98.6811263494 -18.5481886558 150
-76.4431260453 -14.3683151559 141
-53.5101882317 -10.0578206091 138
-59.0696883078 -11.1027889841 135
-43.7810630987 -8.22912595291 132
-25.7126878516 -4.83297873425 129
-120.919126654 -22.7280621557 126
-124.393814201 -23.38116739 123
-127.173564239 -23.9036515775 120
-127.173564239 -23.9036515775 117
-127.173564239 -23.9036515775 114
-127.173564239 -23.9036515775 111
-129.953314277 -24.426135765 108
-134.122939334 -25.2098620462 105
-134.817876844 -25.3404830931 102
-136.207751863 -25.6017251868 99
-136.902689372 -25.7323462337 96
-136.902689372 -25.7323462337 93
-137.597626882 -25.8629672806 90
-137.597626882 -25.8629672806 87
-137.597626882 -25.8629672806 84
-132.038126806 -24.8179989056 81
]);  
 
rotate([90,0,11.6129032258])linear_extrude(height=1, center=false, convexity=14, twist=0) polygon([123.981175226 25.478779199 513
123.288542963 25.3364396504 510
123.981175226 25.478779199 507
122.595910699 25.1941001018 504
122.595910699 25.1941001018 501
122.595910699 25.1941001018 498
122.595910699 25.1941001018 495
122.595910699 25.1941001018 492
122.595910699 25.1941001018 489
121.903278435 25.0517605532 486
121.210646171 24.9094210046 483
121.210646171 24.9094210046 480
119.825381643 24.6247419074 477
119.825381643 24.6247419074 474
119.825381643 24.6247419074 471
118.440117116 24.3400628102 468
118.440117116 24.3400628102 465
118.440117116 24.3400628102 462
118.440117116 24.3400628102 459
117.054852588 24.055383713 456
117.054852588 24.055383713 453
117.054852588 24.055383713 450
117.054852588 24.055383713 447
116.362220324 23.9130441644 444
116.362220324 23.9130441644 441
115.66958806 23.7707046158 438
115.66958806 23.7707046158 435
114.976955797 23.6283650672 432
114.284323533 23.4860255186 429
114.284323533 23.4860255186 426
113.591691269 23.34368597 423
112.899059005 23.2013464214 420
112.899059005 23.2013464214 417
112.206426741 23.0590068728 414
111.513794477 22.9166673242 411
111.513794477 22.9166673242 408
111.513794477 22.9166673242 405
110.821162214 22.7743277756 402
110.821162214 22.7743277756 399
110.821162214 22.7743277756 396
110.12852995 22.631988227 393
109.435897686 22.4896486784 390
109.435897686 22.4896486784 387
109.435897686 22.4896486784 384
108.050633158 22.2049695812 381
108.050633158 22.2049695812 378
107.358000894 22.0626300326 375
106.665368631 21.920290484 372
106.665368631 21.920290484 369
105.972736367 21.7779509354 366
105.972736367 21.7779509354 363
105.972736367 21.7779509354 360
105.280104103 21.6356113868 357
105.280104103 21.6356113868 354
103.894839575 21.3509322896 351
103.894839575 21.3509322896 348
103.894839575 21.3509322896 345
103.202207311 21.208592741 342
102.509575048 21.0662531924 339
102.509575048 21.0662531924 336
101.816942784 20.9239136438 333
101.12431052 20.7815740952 330
101.12431052 20.7815740952 327
100.431678256 20.6392345466 324
99.7390459922 20.496894998 321
99.7390459922 20.496894998 318
99.7390459922 20.496894998 315
99.0464137284 20.3545554494 312
99.0464137284 20.3545554494 309
-27.7052905534 -5.6935819439 306
-33.2463486641 -6.83229833268 303
-37.4021422471 -7.68633562427 300
-40.8653035663 -8.39803336725 297
-44.3284648854 -9.10973111024 294
123.288542963 25.3364396504 291
108.743265422 22.3473091298 288
112.899059005 23.2013464214 285
117.747484852 24.1977232616 282
121.210646171 24.9094210046 279
117.747484852 24.1977232616 276
121.210646171 24.9094210046 273
123.981175226 25.478779199 270
130.214865601 26.7598351363 267
130.214865601 26.7598351363 264
-89.3495620347 -18.3618017691 261
-56.7958456345 -11.671842985 258
-95.5832524092 -19.6428577065 255
-101.12431052 -20.7815740952 252
-101.12431052 -20.7815740952 249
-98.3537814646 -20.2122159008 246
-101.816942784 -20.9239136438 243
-105.280104103 -21.6356113868 240
-108.743265422 -22.3473091298 237
-112.206426741 -23.0590068728 234
-111.513794477 -22.9166673242 231
-103.202207311 -21.208592741 228
-101.12431052 -20.7815740952 225
-100.431678256 -20.6392345466 222
-100.431678256 -20.6392345466 219
-99.0464137284 -20.3545554494 216
-99.0464137284 -20.3545554494 213
-98.3537814646 -20.2122159008 210
-96.9685169369 -19.9275368037 207
-97.6611492007 -20.0698763522 204
-99.0464137284 -20.3545554494 201
-96.9685169369 -19.9275368037 198
-97.6611492007 -20.0698763522 195
-99.0464137284 -20.3545554494 192
-99.7390459922 -20.496894998 189
-100.431678256 -20.6392345466 186
-99.7390459922 -20.496894998 183
-98.3537814646 -20.2122159008 180
-99.7390459922 -20.496894998 177
