-54.6283043793 -116.294933773 326
-54.6283043793 -116.294933773 324
-54.6283043793 -116.294933773 322
-54.2665275291 -115.524768649 320
-54.2665275291 -115.524768649 318
-54.2665275291 -115.524768649 316
-53.9047506789 -114.754603525 314
-53.9047506789 -114.754603525 312
-53.9047506789 -114.754603525 310
-53.9047506789 -114.754603525 308
-53.9047506789 -114.754603525 306
-53.9047506789 -114.754603525 304
-53.9047506789 -114.754603525 302
-53.9047506789 -114.754603525 300
-53.9047506789 -114.754603525 298
-53.9047506789 -114.754603525 296
-53.9047506789 -114.754603525 294
-52.8194201283 -112.444108152 292
-52.8194201283 -112.444108152 290
-52.4576432781 -111.673943027 288
-52.4576432781 -111.673943027 286
-52.4576432781 -111.673943027 284
-52.4576432781 -111.673943027 282
-52.4576432781 -111.673943027 280
-52.4576432781 -111.673943027 278
-52.4576432781 -111.673943027 272
-52.4576432781 -111.673943027 270
-52.4576432781 -111.673943027 268
-51.7340895777 -110.133612779 266
-51.7340895777 -110.133612779 264
-51.7340895777 -110.133612779 262
-51.3723127275 -109.363447654 260
-51.3723127275 -109.363447654 258
-51.3723127275 -109.363447654 256
-51.3723127275 -109.363447654 254
-51.3723127275 -109.363447654 252
-51.0105358773 -108.59328253 250
-51.0105358773 -108.59328253 248
-51.0105358773 -108.59328253 246
-50.2869821769 -107.052952281 244
-50.2869821769 -107.052952281 242
-50.2869821769 -107.052952281 240
-50.2869821769 -107.052952281 238
-50.2869821769 -107.052952281 236
-49.9252053267 -106.282787157 234
-49.9252053267 -106.282787157 232
-49.9252053267 -106.282787157 230
-49.5634284765 -105.512622033 228
-49.5634284765 -105.512622033 226
-49.5634284765 -105.512622033 224
-49.5634284765 -105.512622033 222
-49.5634284765 -105.512622033 220
-49.2016516263 -104.742456908 218
-49.2016516263 -104.742456908 216
-49.2016516263 -104.742456908 214
-48.8398747762 -103.972291784 212
-48.8398747762 -103.972291784 210
-48.478097926 -103.20212666 208
-48.478097926 -103.20212666 206
-48.478097926 -103.20212666 204
-48.478097926 -103.20212666 202
14.1092971576 30.0364398487 194
15.5564045583 33.117100346 192
17.0035119591 36.1977608433 190
17.3652888093 36.9679259677 188
30.0274785661 63.9237053191 184
29.3039248657 62.3833750704 182
29.3039248657 62.3833750704 180
29.3039248657 62.3833750704 178
30.0274785661 63.9237053191 176
29.6657017159 63.1535401948 174
29.6657017159 63.1535401948 172
29.6657017159 63.1535401948 170
29.6657017159 63.1535401948 168
29.6657017159 63.1535401948 166
30.0274785661 63.9237053191 164
30.0274785661 63.9237053191 162
30.7510322665 65.4640355677 160
30.7510322665 65.4640355677 158
30.3892554163 64.6938704434 156
30.0274785661 63.9237053191 154
30.7510322665 65.4640355677 152
31.1128091167 66.2342006921 150
30.7510322665 65.4640355677 122
30.7510322665 65.4640355677 120
30.7510322665 65.4640355677 118
12.3004129066 26.1856142271 92
13.7475203074 29.2662747244 90
15.5564045583 33.117100346 88
15.5564045583 33.117100346 86
17.0035119591 36.1977608433 84
13.3857434572 28.4961096001 82
42.6896683229 90.8794846705 70
43.0514451731 91.6496497948 68
45.9456599746 97.8109707894 64
45.9456599746 97.8109707894 62
45.9456599746 97.8109707894 60
46.669213675 99.3513010381 58
46.669213675 99.3513010381 56
46.669213675 99.3513010381 54
46.3074368248 98.5811359138 52
46.3074368248 98.5811359138 50
46.3074368248 98.5811359138 48
46.3074368248 98.5811359138 46
46.3074368248 98.5811359138 44
45.9456599746 97.8109707894 42
45.2221062742 96.2706405408 40
44.4985525738 94.7303102921 38
44.1367757236 93.9601451678 36
44.1367757236 93.9601451678 34
13.3857434572 28.4961096001 26
14.1092971576 30.0364398487 24
13.3857434572 28.4961096001 22
11.9386360564 25.4154491028 20
11.215082356 23.8751188541 18
7.95909070426 16.9436327352 16
7.95909070426 16.9436327352 14
7.95909070426 16.9436327352 12
14.8328508579 31.5767700974 4
14.8328508579 31.5767700974 2
-54.399939172 -121.081816881 378
-54.399939172 -121.081816881 376
-54.399939172 -121.081816881 374
-54.0512216132 -120.305651388 356
-54.0512216132 -120.305651388 354
-54.0512216132 -120.305651388 352
-54.0512216132 -120.305651388 350
-54.0512216132 -120.305651388 348
-52.6563513781 -117.200989417 346
-52.6563513781 -117.200989417 344
-52.6563513781 -117.200989417 342
-52.6563513781 -117.200989417 340
-52.6563513781 -117.200989417 338
-52.6563513781 -117.200989417 336
-52.6563513781 -117.200989417 334
-52.6563513781 -117.200989417 332
-52.6563513781 -117.200989417 330
-52.6563513781 -117.200989417 328
-52.6563513781 -117.200989417 326
-52.3076338193 -116.424823924 324
-52.3076338193 -116.424823924 322
-52.3076338193 -116.424823924 320
-52.3076338193 -116.424823924 318
-52.3076338193 -116.424823924 316
-51.9589162605 -115.648658431 314
-51.9589162605 -115.648658431 312
-51.9589162605 -115.648658431 310
-51.9589162605 -115.648658431 308
-51.9589162605 -115.648658431 306
-51.9589162605 -115.648658431 304
-51.9589162605 -115.648658431 302
-51.9589162605 -115.648658431 300
-51.9589162605 -115.648658431 298
-51.9589162605 -115.648658431 296
-51.9589162605 -115.648658431 294
-50.9127635841 -113.320161952 292
-50.9127635841 -113.320161952 290
-50.5640460253 -112.54399646 288
-50.5640460253 -112.54399646 286
-50.5640460253 -112.54399646 284
-50.5640460253 -112.54399646 282
-50.5640460253 -112.54399646 280
-50.5640460253 -112.54399646 278
-50.5640460253 -112.54399646 276
-50.5640460253 -112.54399646 274
-50.5640460253 -112.54399646 272
-50.5640460253 -112.54399646 270
-50.5640460253 -112.54399646 268
-49.8666109077 -110.991665474 266
-49.8666109077 -110.991665474 264
-49.8666109077 -110.991665474 262
-49.5178933489 -110.215499981 260
-49.5178933489 -110.215499981 258
-49.5178933489 -110.215499981 256
-49.5178933489 -110.215499981 254
-49.5178933489 -110.215499981 252
-49.1691757901 -109.439334488 250
-49.1691757901 -109.439334488 248
-49.1691757901 -109.439334488 246
-48.4717406725 -107.887003503 244
-48.4717406725 -107.887003503 242
-48.4717406725 -107.887003503 240
-48.4717406725 -107.887003503 238
-48.4717406725 -107.887003503 236
-48.1230231137 -107.11083801 234
-48.1230231137 -107.11083801 232
-48.1230231137 -107.11083801 230
-47.7743055549 -106.334672517 228
-47.7743055549 -106.334672517 226
-47.7743055549 -106.334672517 224
-47.7743055549 -106.334672517 222
-47.7743055549 -106.334672517 220
-47.4255879961 -105.558507024 218
-47.4255879961 -105.558507024 216
-47.4255879961 -105.558507024 214
-47.0768704373 -104.782341531 212
-47.0768704373 -104.782341531 210
-46.7281528785 -104.006176039 208
-46.7281528785 -104.006176039 206
-46.7281528785 -104.006176039 204
-46.7281528785 -104.006176039 202
10.4615267639 23.2849647848 198
11.856396999 26.3896267561 196
13.599984793 30.2704542202 194
14.9948550282 33.3751161915 192
16.3897252634 36.4797781628 190
16.7384428222 37.2559436556 188
20.2256184101 45.0175985839 186
28.2461222624 62.8694049188 184
28.2461222624 62.8694049188 182
28.2461222624 62.8694049188 180
28.2461222624 62.8694049188 178
27.5486871448 61.3170739332 176
27.5486871448 61.3170739332 174
27.5486871448 61.3170739332 172
28.5948398212 63.6455704117 170
28.5948398212 63.6455704117 168
28.5948398212 63.6455704117 166
28.5948398212 63.6455704117 164
28.5948398212 63.6455704117 162
29.6409924976 65.9740668901 160
29.6409924976 65.9740668901 158
29.2922749388 65.1979013973 156
28.5948398212 63.6455704117 154
29.9897100564 66.750232383 152
29.9897100564 66.750232383 150
29.6409924976 65.9740668901 138
29.6409924976 65.9740668901 136
29.6409924976 65.9740668901 134
31.0358627328 69.0787288614 116
31.0358627328 69.0787288614 114
10.8102443226 24.0611302776 94
11.856396999 26.3896267561 92
12.9025496754 28.7181232345 90
14.9948550282 33.3751161915 88
14.9948550282 33.3751161915 86
15.343572587 34.1512816843 84
12.9025496754 28.7181232345 82
41.1486719378 91.5875281534 74
41.4973894966 92.3636936462 72
41.8461070554 93.139859139 70
42.1948246142 93.9160246318 68
44.6358475258 99.3491830816 52
44.6358475258 99.3491830816 50
44.6358475258 99.3491830816 48
44.6358475258 99.3491830816 46
44.6358475258 99.3491830816 44
44.6358475258 99.3491830816 42
43.9384124082 97.796852096 40
43.9384124082 97.796852096 38
42.543542173 94.6921901247 36
42.543542173 94.6921901247 34
13.2512672342 29.4942887274 26
13.599984793 30.2704542202 24
13.2512672342 29.4942887274 22
11.856396999 26.3896267561 20
10.8102443226 24.0611302776 18
5.92819849952 13.194813378 16
5.92819849952 13.194813378 14
5.92819849952 13.194813378 12
12.9025496754 28.7181232345 4
12.9025496754 28.7181232345 2
-53.6894059259 -125.111110529 388
-53.6894059259 -125.111110529 386
-52.3471707777 -121.983332766 378
-52.3471707777 -121.983332766 376
-52.3471707777 -121.983332766 374
-52.0116119907 -121.201388325 356
-52.0116119907 -121.201388325 354
-52.0116119907 -121.201388325 352
-52.0116119907 -121.201388325 350
-52.0116119907 -121.201388325 348
-50.6693768425 -118.073610562 346
-50.6693768425 -118.073610562 344
-50.6693768425 -118.073610562 342
-50.6693768425 -118.073610562 340
-50.6693768425 -118.073610562 338
-50.6693768425 -118.073610562 336
-50.6693768425 -118.073610562 334
-50.6693768425 -118.073610562 332
-50.6693768425 -118.073610562 330
-50.6693768425 -118.073610562 328
-50.6693768425 -118.073610562 326
-50.6693768425 -118.073610562 324
-50.6693768425 -118.073610562 322
-50.3338180555 -117.291666121 320
-50.3338180555 -117.291666121 318
-50.3338180555 -117.291666121 316
-49.9982592685 -116.50972168 314
-49.9982592685 -116.50972168 312
-49.9982592685 -116.50972168 310
-49.9982592685 -116.50972168 308
-49.9982592685 -116.50972168 306
-49.9982592685 -116.50972168 304
-49.9982592685 -116.50972168 302
-49.9982592685 -116.50972168 300
-49.9982592685 -116.50972168 298
-49.9982592685 -116.50972168 296
-49.9982592685 -116.50972168 294
-48.9915829073 -114.163888358 292
-48.9915829073 -114.163888358 290
-48.6560241203 -113.381943917 288
-48.6560241203 -113.381943917 286
-48.6560241203 -113.381943917 284
-48.6560241203 -113.381943917 282
-48.6560241203 -113.381943917 280
-48.6560241203 -113.381943917 278
-48.6560241203 -113.381943917 276
-48.6560241203 -113.381943917 274
-48.6560241203 -113.381943917 272
-48.6560241203 -113.381943917 270
-48.6560241203 -113.381943917 268
-47.9849065462 -111.818055035 266
-47.9849065462 -111.818055035 264
-47.9849065462 -111.818055035 262
-47.6493477592 -111.036110594 260
-47.6493477592 -111.036110594 258
-47.6493477592 -111.036110594 256
-47.6493477592 -111.036110594 254
-47.6493477592 -111.036110594 252
-47.3137889722 -110.254166154 250
-47.3137889722 -110.254166154 248
-47.3137889722 -110.254166154 246
-46.6426713981 -108.690277272 244
-46.6426713981 -108.690277272 242
-46.6426713981 -108.690277272 240
-46.6426713981 -108.690277272 238
-46.6426713981 -108.690277272 236
-46.307112611 -107.908332831 234
-46.307112611 -107.908332831 232
-46.307112611 -107.908332831 230
-45.971553824 -107.12638839 228
-45.971553824 -107.12638839 226
-45.971553824 -107.12638839 224
-45.971553824 -107.12638839 222
-45.971553824 -107.12638839 220
-45.635995037 -106.34444395 218
-45.635995037 -106.34444395 216
-45.635995037 -106.34444395 214
-45.3004362499 -105.562499509 212
-45.3004362499 -105.562499509 210
-44.9648774629 -104.780555068 208
-44.9648774629 -104.780555068 206
-44.9648774629 -104.780555068 204
-44.9648774629 -104.780555068 202
15.1001454166 35.1874998363 192
15.7712629907 36.7513887179 190
16.1068217778 37.5333331587 188
19.4624096481 45.3527775667 186
27.18026175 63.3374997053 184
27.18026175 63.3374997053 182
27.18026175 63.3374997053 180
27.18026175 63.3374997053 178
27.18026175 63.3374997053 176
27.18026175 63.3374997053 174
27.18026175 63.3374997053 172
27.515820537 64.1194441461 170
27.515820537 64.1194441461 168
27.515820537 64.1194441461 166
27.515820537 64.1194441461 164
27.515820537 64.1194441461 162
28.5224968981 66.4652774685 160
28.1869381111 65.6833330277 158
27.851379324 64.9013885869 156
28.1869381111 65.6833330277 154
28.5224968981 66.4652774685 152
28.8580556851 67.2472219093 150
28.5224968981 66.4652774685 148
28.5224968981 66.4652774685 146
28.5224968981 66.4652774685 138
28.5224968981 66.4652774685 136
28.5224968981 66.4652774685 134
28.5224968981 66.4652774685 132
28.5224968981 66.4652774685 130
10.0667636111 23.4583332242 94
11.0734399722 25.8041665466 92
12.0801163333 28.149999869 90
14.0934690555 32.8416665138 88
14.0934690555 32.8416665138 86
14.7645866296 34.4055553955 84
12.4156751204 28.9319443098 82
37.5825841481 87.5777773703 80
37.5825841481 87.5777773703 78
37.9181429351 88.3597218111 76
39.9314956574 93.0513884559 74
39.9314956574 93.0513884559 72
39.9314956574 93.0513884559 70
40.2670544444 93.8333328967 68
40.2670544444 93.8333328967 66
40.9381720185 95.3972217783 64
40.9381720185 95.3972217783 62
42.6159659536 99.3069439823 52
42.6159659536 99.3069439823 50
42.9515247407 100.088888423 48
42.9515247407 100.088888423 46
42.9515247407 100.088888423 44
43.2870835277 100.870832864 42
42.6159659536 99.3069439823 40
41.9448483796 97.7430551007 38
40.9381720185 95.3972217783 36
40.9381720185 95.3972217783 34
12.4156751204 28.9319443098 26
13.4223514815 31.2777776322 24
13.4223514815 31.2777776322 22
11.4089987592 26.5861109874 20
10.4023223981 24.240277665 18
6.3756169537 14.8569443753 16
6.3756169537 14.8569443753 14
6.3756169537 14.8569443753 12
6.71117574073 15.6388888161 10
7.3822933148 17.2027776977 8
7.3822933148 17.2027776977 6
14.4290278426 33.6236109547 2
-50.2794690505 -122.85004987 378
-50.2794690505 -122.85004987 376
-50.2794690505 -122.85004987 374
-49.9571647617 -122.06254955 356
-49.9571647617 -122.06254955 354
-49.9571647617 -122.06254955 352
-49.9571647617 -122.06254955 350
-49.9571647617 -122.06254955 348
-48.6679476066 -118.912548272 346
-48.6679476066 -118.912548272 344
-48.6679476066 -118.912548272 342
-48.6679476066 -118.912548272 340
-48.6679476066 -118.912548272 338
-48.6679476066 -118.912548272 336
-48.6679476066 -118.912548272 334
-48.6679476066 -118.912548272 332
-48.6679476066 -118.912548272 330
-48.6679476066 -118.912548272 328
-48.6679476066 -118.912548272 326
-48.6679476066 -118.912548272 324
-48.6679476066 -118.912548272 322
-48.3456433178 -118.125047952 320
-48.3456433178 -118.125047952 318
-48.3456433178 -118.125047952 316
-48.023339029 -117.337547632 314
-48.023339029 -117.337547632 312
-48.023339029 -117.337547632 310
-48.023339029 -117.337547632 308
-48.023339029 -117.337547632 306
-48.023339029 -117.337547632 304
-48.023339029 -117.337547632 302
-48.023339029 -117.337547632 300
-48.023339029 -117.337547632 298
-48.023339029 -117.337547632 296
-48.023339029 -117.337547632 294
-47.0564261626 -114.975046673 292
-47.0564261626 -114.975046673 290
-46.7341218738 -114.187546354 288
-46.7341218738 -114.187546354 286
-46.7341218738 -114.187546354 284
-46.7341218738 -114.187546354 282
-46.7341218738 -114.187546354 280
-46.7341218738 -114.187546354 278
-46.7341218738 -114.187546354 276
-46.7341218738 -114.187546354 274
-46.7341218738 -114.187546354 272
-46.7341218738 -114.187546354 270
-46.7341218738 -114.187546354 268
-46.0895132963 -112.612545714 266
-46.0895132963 -112.612545714 264
-46.0895132963 -112.612545714 262
-45.7672090075 -111.825045394 260
-45.7672090075 -111.825045394 258
-45.7672090075 -111.825045394 256
-45.7672090075 -111.825045394 254
-45.7672090075 -111.825045394 252
-45.4449047187 -111.037545075 250
-45.4449047187 -111.037545075 248
-45.4449047187 -111.037545075 246
-44.8002961411 -109.462544435 244
-44.8002961411 -109.462544435 242
-44.8002961411 -109.462544435 240
-44.8002961411 -109.462544435 238
-44.8002961411 -109.462544435 236
-44.4779918523 -108.675044116 234
-44.4779918523 -108.675044116 232
-44.4779918523 -108.675044116 230
-44.1556875636 -107.887543796 228
-44.1556875636 -107.887543796 226
-44.1556875636 -107.887543796 224
-44.1556875636 -107.887543796 222
-44.1556875636 -107.887543796 220
-43.8333832748 -107.100043476 218
-43.8333832748 -107.100043476 216
-43.8333832748 -107.100043476 214
-43.511078986 -106.312543157 212
-43.511078986 -106.312543157 210
-43.1887746972 -105.525042837 208
-43.1887746972 -105.525042837 206
-43.1887746972 -105.525042837 204
-43.1887746972 -105.525042837 202
10.6360415299 25.9875105494 196
13.2144758402 32.2875131069 194
14.5036929953 35.4375143856 192
15.1483015729 37.0125150249 190
15.4706058617 37.8000153446 188
25.462038814 62.2125252547 186
26.1066473916 63.787525894 184
26.1066473916 63.787525894 182
26.1066473916 63.787525894 180
26.1066473916 63.787525894 178
25.462038814 62.2125252547 176
25.462038814 62.2125252547 174
25.462038814 62.2125252547 172
25.462038814 62.2125252547 170
25.462038814 62.2125252547 168
25.462038814 62.2125252547 166
26.4289516804 64.5750262137 164
26.4289516804 64.5750262137 162
27.073560258 66.1500268531 160
27.073560258 66.1500268531 158
26.7512559692 65.3625265334 156
26.7512559692 65.3625265334 154
27.3958645467 66.9375271728 152
27.7181688355 67.7250274924 150
27.3958645467 66.9375271728 148
27.3958645467 66.9375271728 146
27.3958645467 66.9375271728 138
27.3958645467 66.9375271728 136
27.3958645467 66.9375271728 134
27.3958645467 66.9375271728 132
27.3958645467 66.9375271728 130
27.3958645467 66.9375271728 128
27.3958645467 66.9375271728 126
27.3958645467 66.9375271728 124
27.3958645467 66.9375271728 122
27.3958645467 66.9375271728 120
27.3958645467 66.9375271728 118
27.3958645467 66.9375271728 116
27.3958645467 66.9375271728 114
28.6850817019 70.0875284515 112
28.6850817019 70.0875284515 110
28.6850817019 70.0875284515 108
9.66912866355 23.6250095904 94
10.6360415299 25.9875105494 92
11.6029543963 28.3500115085 90
13.536780129 33.0750134265 88
13.536780129 33.0750134265 86
14.1813887065 34.6500140659 84
11.6029543963 28.3500115085 82
35.7757760552 87.4125354844 80
36.4203846327 88.9875361238 78
36.4203846327 88.9875361238 76
38.0319060766 92.9250377222 74
38.0319060766 92.9250377222 72
38.0319060766 92.9250377222 70
38.6765146542 94.5000383615 68
38.6765146542 94.5000383615 66
39.3211232318 96.0750390009 64
39.3211232318 96.0750390009 62
39.3211232318 96.0750390009 60
39.6434275206 96.8625393206 58
39.6434275206 96.8625393206 56
39.6434275206 96.8625393206 54
40.9326446757 100.012540599 52
41.2549489645 100.800040919 50
41.5772532533 101.587541239 48
41.5772532533 101.587541239 46
41.5772532533 101.587541239 44
41.2549489645 100.800040919 42
41.2549489645 100.800040919 40
41.2549489645 100.800040919 38
39.3211232318 96.0750390009 36
39.3211232318 96.0750390009 34
11.9252586851 29.1375118281 26
12.8921715514 31.5000127872 24
12.8921715514 31.5000127872 22
10.9583458187 26.7750108691 20
10.3137372411 25.2000102297 18
6.12378148692 14.9625060739 16
6.12378148692 14.9625060739 14
6.12378148692 14.9625060739 12
6.76839006449 16.5375067133 10
7.09069435327 17.3250070329 8
11.9252586851 29.1375118281 4
11.9252586851 29.1375118281 2
-49.4332552346 -126.853047119 388
-49.4332552346 -126.853047119 386
-48.1974238537 -123.681720941 378
-48.1974238537 -123.681720941 376
-48.1974238537 -123.681720941 374
-47.8884660085 -122.888889396 356
-47.8884660085 -122.888889396 354
-47.8884660085 -122.888889396 352
-47.8884660085 -122.888889396 350
-47.8884660085 -122.888889396 348
-46.6526346276 -119.717563219 346
-46.6526346276 -119.717563219 344
-46.6526346276 -119.717563219 342
-46.6526346276 -119.717563219 340
-46.6526346276 -119.717563219 338
-46.6526346276 -119.717563219 336
-46.6526346276 -119.717563219 334
-46.6526346276 -119.717563219 332
-46.6526346276 -119.717563219 330
-46.6526346276 -119.717563219 328
-46.6526346276 -119.717563219 326
-46.3436767824 -118.924731674 324
-46.3436767824 -118.924731674 322
-46.3436767824 -118.924731674 320
-46.3436767824 -118.924731674 318
-46.3436767824 -118.924731674 316
-46.0347189372 -118.13190013 314
-46.0347189372 -118.13190013 312
-46.0347189372 -118.13190013 310
-46.0347189372 -118.13190013 308
-46.0347189372 -118.13190013 306
-46.0347189372 -118.13190013 304
-46.0347189372 -118.13190013 302
-46.0347189372 -118.13190013 300
-46.0347189372 -118.13190013 298
-46.0347189372 -118.13190013 296
-46.0347189372 -118.13190013 294
-45.1078454016 -115.753405496 292
-45.1078454016 -115.753405496 290
-44.7988875563 -114.960573952 288
-44.7988875563 -114.960573952 286
-44.7988875563 -114.960573952 284
-44.7988875563 -114.960573952 282
-44.7988875563 -114.960573952 280
-44.7988875563 -114.960573952 278
-44.7988875563 -114.960573952 276
-44.7988875563 -114.960573952 274
-44.7988875563 -114.960573952 272
-44.7988875563 -114.960573952 270
-44.7988875563 -114.960573952 268
-44.1809718659 -113.374910863 266
-44.1809718659 -113.374910863 264
-44.1809718659 -113.374910863 262
-43.8720140207 -112.582079318 260
-43.8720140207 -112.582079318 258
-43.8720140207 -112.582079318 256
-43.8720140207 -112.582079318 254
-43.8720140207 -112.582079318 252
-43.5630561755 -111.789247774 250
-43.5630561755 -111.789247774 248
-43.5630561755 -111.789247774 246
-42.9451404851 -110.203584685 244
-42.9451404851 -110.203584685 242
-42.9451404851 -110.203584685 240
-42.9451404851 -110.203584685 238
-42.9451404851 -110.203584685 236
-42.6361826398 -109.41075314 234
-42.6361826398 -109.41075314 232
-42.6361826398 -109.41075314 230
-42.3272247946 -108.617921596 228
-42.3272247946 -108.617921596 226
-42.3272247946 -108.617921596 224
-42.3272247946 -108.617921596 222
-42.3272247946 -108.617921596 220
-42.0182669494 -107.825090051 218
-42.0182669494 -107.825090051 216
-42.0182669494 -107.825090051 214
-41.7093091042 -107.032258507 212
-41.7093091042 -107.032258507 210
-41.400351259 -106.239426962 208
-41.400351259 -106.239426962 206
-41.400351259 -106.239426962 204
-41.400351259 -106.239426962 202
10.5045667374 26.9562725128 196
12.0493559634 30.9204302352 194
13.9031030347 35.6774195022 192
14.5210187252 37.2630825912 190
14.5210187252 37.2630825912 188
22.862880546 58.6695342925 186
25.0255854625 64.219355104 184
25.0255854625 64.219355104 182
24.4076697721 62.633692015 180
24.4076697721 62.633692015 178
24.4076697721 62.633692015 176
24.4076697721 62.633692015 174
24.4076697721 62.633692015 172
24.4076697721 62.633692015 170
24.4076697721 62.633692015 168
24.4076697721 62.633692015 166
25.0255854625 64.219355104 164
25.0255854625 64.219355104 162
25.6435011529 65.805018193 160
25.6435011529 65.805018193 158
25.6435011529 65.805018193 156
25.9524589982 66.5978497375 154
26.5703746886 68.1835128264 152
26.5703746886 68.1835128264 150
26.2614168434 67.3906812819 128
26.2614168434 67.3906812819 126
26.2614168434 67.3906812819 124
26.2614168434 67.3906812819 122
26.2614168434 67.3906812819 120
26.2614168434 67.3906812819 118
26.5703746886 68.1835128264 116
26.5703746886 68.1835128264 114
27.4972482242 70.5620074599 112
27.4972482242 70.5620074599 110
27.4972482242 70.5620074599 108
8.95977751127 22.9921147903 94
9.5776932017 24.5777778793 92
11.1224824278 28.5419356018 90
12.9762294991 33.2989248687 88
12.9762294991 33.2989248687 86
12.9762294991 33.2989248687 84
11.431440273 29.3347671463 82
34.9122365094 89.5899645278 80
34.9122365094 89.5899645278 78
34.9122365094 89.5899645278 76
36.4570257355 93.5541222502 74
36.4570257355 93.5541222502 72
36.4570257355 93.5541222502 70
37.0749414259 95.1397853392 68
37.0749414259 95.1397853392 66
37.6928571164 96.7254484282 64
37.6928571164 96.7254484282 62
37.6928571164 96.7254484282 60
37.6928571164 96.7254484282 58
37.6928571164 96.7254484282 56
37.6928571164 96.7254484282 54
38.9286884972 99.8967746062 52
39.2376463425 100.689606151 50
39.5466041877 101.482437695 48
39.5466041877 101.482437695 46
39.5466041877 101.482437695 44
39.5466041877 101.482437695 42
38.619730652 99.1039430617 40
37.6928571164 96.7254484282 38
37.6928571164 96.7254484282 36
37.6928571164 96.7254484282 34
12.0493559634 30.9204302352 26
12.3583138086 31.7132617797 24
12.0493559634 30.9204302352 22
10.5045667374 26.9562725128 20
9.88665104692 25.3706094238 18
5.87019905911 15.0637993454 16
5.87019905911 15.0637993454 14
5.87019905911 15.0637993454 12
5.87019905911 15.0637993454 10
6.48811474954 16.6494624344 8
11.431440273 29.3347671463 4
11.7403981182 30.1275986908 2
-47.2837221976 -127.669855101 404
-47.2837221976 -127.669855101 402
-46.1016291426 -124.478108724 378
-46.1016291426 -124.478108724 376
-46.1016291426 -124.478108724 374
-45.8061058789 -123.680172129 356
-45.8061058789 -123.680172129 354
-45.8061058789 -123.680172129 352
-45.8061058789 -123.680172129 350
-45.8061058789 -123.680172129 348
-44.624012824 -120.488425752 346
-44.624012824 -120.488425752 344
-44.624012824 -120.488425752 342
-44.624012824 -120.488425752 340
-44.624012824 -120.488425752 338
-44.624012824 -120.488425752 336
-44.624012824 -120.488425752 334
-44.624012824 -120.488425752 332
-44.3284895602 -119.690489158 324
-44.3284895602 -119.690489158 322
-44.3284895602 -119.690489158 320
-44.3284895602 -119.690489158 318
-44.3284895602 -119.690489158 316
-44.0329662965 -118.892552563 314
-44.0329662965 -118.892552563 312
-44.0329662965 -118.892552563 310
-44.0329662965 -118.892552563 308
-44.0329662965 -118.892552563 306
-44.0329662965 -118.892552563 304
-44.0329662965 -118.892552563 302
-44.0329662965 -118.892552563 300
-44.0329662965 -118.892552563 298
-44.0329662965 -118.892552563 296
-44.0329662965 -118.892552563 294
-43.1463965053 -116.49874278 292
-43.1463965053 -116.49874278 290
-42.8508732416 -115.700806186 288
-42.8508732416 -115.700806186 286
-42.8508732416 -115.700806186 284
-42.8508732416 -115.700806186 282
-42.8508732416 -115.700806186 280
-42.8508732416 -115.700806186 278
-42.8508732416 -115.700806186 276
-42.8508732416 -115.700806186 274
-42.8508732416 -115.700806186 272
-42.8508732416 -115.700806186 270
-42.8508732416 -115.700806186 268
-42.2598267141 -114.104932997 266
-42.2598267141 -114.104932997 264
-42.2598267141 -114.104932997 262
-41.9643034504 -113.306996402 260
-41.9643034504 -113.306996402 258
-41.9643034504 -113.306996402 256
-41.9643034504 -113.306996402 254
-41.9643034504 -113.306996402 252
-41.9643034504 -113.306996402 250
-41.9643034504 -113.306996402 248
-41.9643034504 -113.306996402 246
-41.0777336591 -110.913186619 244
-41.0777336591 -110.913186619 242
-41.0777336591 -110.913186619 240
-41.0777336591 -110.913186619 238
-41.0777336591 -110.913186619 236
-40.7822103954 -110.115250025 234
-40.7822103954 -110.115250025 232
-40.7822103954 -110.115250025 230
-40.4866871317 -109.317313431 228
-40.4866871317 -109.317313431 226
-40.4866871317 -109.317313431 224
-40.4866871317 -109.317313431 222
-40.4866871317 -109.317313431 220
-40.1911638679 -108.519376836 218
-40.1911638679 -108.519376836 216
-40.1911638679 -108.519376836 214
-39.8956406042 -107.721440242 212
-39.8956406042 -107.721440242 210
-39.6001173405 -106.923503647 208
-39.6001173405 -106.923503647 206
-39.6001173405 -106.923503647 204
-39.6001173405 -106.923503647 202
10.047790967 27.129844209 196
11.5254072857 31.119527181 194
13.2985468681 35.9071467473 192
13.8895933955 37.503019936 190
13.8895933955 37.503019936 188
23.3463378351 63.0369909563 186
23.9373843625 64.6328641451 184
23.9373843625 64.6328641451 182
23.3463378351 63.0369909563 180
23.3463378351 63.0369909563 178
23.3463378351 63.0369909563 176
23.3463378351 63.0369909563 174
23.3463378351 63.0369909563 172
23.3463378351 63.0369909563 170
23.3463378351 63.0369909563 168
23.3463378351 63.0369909563 166
23.9373843625 64.6328641451 164
23.9373843625 64.6328641451 162
24.52843089 66.2287373338 160
24.52843089 66.2287373338 158
24.2329076263 65.4308007394 156
25.4150006812 68.622547117 154
25.4150006812 68.622547117 152
25.4150006812 68.622547117 150
25.1194774175 67.8246105226 138
25.1194774175 67.8246105226 136
25.1194774175 67.8246105226 134
25.1194774175 67.8246105226 132
25.1194774175 67.8246105226 130
25.1194774175 67.8246105226 128
25.1194774175 67.8246105226 126
25.1194774175 67.8246105226 124
25.4150006812 68.622547117 122
25.4150006812 68.622547117 120
25.4150006812 68.622547117 118
8.57017464831 23.1401612371 94
9.16122117578 24.7360344259 92
10.6388374945 28.7257173978 90
12.4119770769 33.5133369641 88
12.4119770769 33.5133369641 86
12.7075003406 34.3112735585 84
13.8895933955 37.503019936 82
32.8030822746 88.5709619766 80
33.394128802 90.1668351653 78
33.9851753295 91.7627083541 76
34.576221857 93.3585815429 74
34.8717451207 94.1565181372 72
34.8717451207 94.1565181372 70
35.7583149119 96.5503279204 68
35.7583149119 96.5503279204 66
36.0538381757 97.3482645148 64
36.0538381757 97.3482645148 62
36.0538381757 97.3482645148 60
36.3493614394 98.1462011092 58
36.3493614394 98.1462011092 56
36.3493614394 98.1462011092 54
37.5314544943 101.337947487 52
37.8269777581 102.135884081 50
37.8269777581 102.135884081 48
37.8269777581 102.135884081 46
37.8269777581 102.135884081 44
37.8269777581 102.135884081 42
37.2359312306 100.540010892 40
37.2359312306 100.540010892 38
36.0538381757 97.3482645148 36
36.0538381757 97.3482645148 34
11.8209305494 31.9174637753 26
12.1164538131 32.7154003697 24
12.1164538131 32.7154003697 22
10.3433142307 27.9277808034 20
9.75226770325 26.3319076147 18
6.20598853843 16.7566684821 16
6.20598853843 16.7566684821 14
6.20598853843 16.7566684821 12
6.50151180217 17.5546050764 10
6.50151180217 17.5546050764 8
6.50151180217 17.5546050764 6
10.9343607582 29.5236539922 4
10.9343607582 29.5236539922 2
-43.9926827948 -125.238986029 378
-43.9926827948 -125.238986029 376
-43.9926827948 -125.238986029 374
-43.7106784179 -124.436172016 356
-43.7106784179 -124.436172016 354
-43.7106784179 -124.436172016 352
-43.7106784179 -124.436172016 350
-43.7106784179 -124.436172016 348
-42.5826609104 -121.224915964 346
-42.5826609104 -121.224915964 344
-42.5826609104 -121.224915964 342
-42.5826609104 -121.224915964 340
-42.5826609104 -121.224915964 338
-42.5826609104 -121.224915964 336
-42.5826609104 -121.224915964 334
-42.5826609104 -121.224915964 332
-42.5826609104 -121.224915964 330
-42.5826609104 -121.224915964 328
-42.5826609104 -121.224915964 326
-42.5826609104 -121.224915964 324
-42.5826609104 -121.224915964 322
-42.3006565335 -120.422101951 320
-42.3006565335 -120.422101951 318
-42.3006565335 -120.422101951 316
-42.0186521566 -119.619287938 314
-42.0186521566 -119.619287938 312
-42.0186521566 -119.619287938 310
-42.0186521566 -119.619287938 308
-42.0186521566 -119.619287938 306
-42.0186521566 -119.619287938 304
-42.0186521566 -119.619287938 302
-42.0186521566 -119.619287938 300
-42.0186521566 -119.619287938 298
-42.0186521566 -119.619287938 296
-42.0186521566 -119.619287938 294
-41.1726390259 -117.210845899 292
-41.1726390259 -117.210845899 290
-40.890634649 -116.408031886 288
-40.890634649 -116.408031886 286
-40.890634649 -116.408031886 284
-40.890634649 -116.408031886 282
-40.890634649 -116.408031886 280
-40.890634649 -116.408031886 278
-40.890634649 -116.408031886 276
-40.890634649 -116.408031886 274
-40.890634649 -116.408031886 272
-40.890634649 -116.408031886 270
-40.890634649 -116.408031886 268
-40.3266258952 -114.80240386 266
-40.3266258952 -114.80240386 264
-40.3266258952 -114.80240386 262
-40.0446215183 -113.999589847 260
-40.0446215183 -113.999589847 258
-40.0446215183 -113.999589847 256
-40.0446215183 -113.999589847 254
-40.0446215183 -113.999589847 252
-40.0446215183 -113.999589847 250
-40.0446215183 -113.999589847 248
-40.0446215183 -113.999589847 246
-39.1986083877 -111.591147808 244
-39.1986083877 -111.591147808 242
-39.1986083877 -111.591147808 240
-39.1986083877 -111.591147808 238
-39.1986083877 -111.591147808 236
-38.9166040108 -110.788333795 234
-38.9166040108 -110.788333795 232
-38.9166040108 -110.788333795 230
-38.6345996339 -109.985519782 228
-38.6345996339 -109.985519782 226
-38.6345996339 -109.985519782 224
-38.6345996339 -109.985519782 222
-38.6345996339 -109.985519782 220
-38.352595257 -109.182705769 218
-38.352595257 -109.182705769 216
-38.352595257 -109.182705769 214
-38.0705908801 -108.379891756 212
-38.0705908801 -108.379891756 210
-37.7885865032 -107.577077743 208
-37.7885865032 -107.577077743 206
-37.7885865032 -107.577077743 204
-37.7885865032 -107.577077743 202
9.58814881425 27.2956764422 196
10.9981706987 31.3097465073 194
13.2542057138 37.7322586113 192
13.2542057138 37.7322586113 190
22.2783457743 63.4223070275 186
22.8423545281 65.0279350535 184
22.8423545281 65.0279350535 182
22.2783457743 63.4223070275 180
22.2783457743 63.4223070275 178
22.2783457743 63.4223070275 176
22.2783457743 63.4223070275 174
22.2783457743 63.4223070275 172
22.2783457743 63.4223070275 170
22.2783457743 63.4223070275 168
22.2783457743 63.4223070275 166
22.5603501512 64.2251210405 164
22.2783457743 63.4223070275 162
23.4063632819 66.6335630795 160
23.124358905 65.8307490665 158
22.8423545281 65.0279350535 156
23.9703720356 68.2391911056 154
23.9703720356 68.2391911056 152
23.9703720356 68.2391911056 150
23.9703720356 68.2391911056 128
23.9703720356 68.2391911056 126
23.9703720356 68.2391911056 124
24.2523764125 69.0420051186 122
24.2523764125 69.0420051186 120
24.2523764125 69.0420051186 118
23.9703720356 68.2391911056 116
23.9703720356 68.2391911056 114
25.0983895432 71.4504471576 112
25.0983895432 71.4504471576 110
25.0983895432 71.4504471576 108
8.1781269298 23.2816063772 94
8.74213568358 24.8872344032 92
10.4341619449 29.7041184812 90
11.8441838294 33.7181885463 88
11.8441838294 33.7181885463 86
12.1261882063 34.5210025593 84
10.4341619449 29.7041184812 82
31.8664945885 90.7179834697 80
32.1484989654 91.5207974827 78
32.4305033423 92.3236114957 76
32.9945120961 93.9292395218 74
33.276516473 94.7320535348 72
33.276516473 94.7320535348 70
34.1225296037 97.1404955738 68
34.1225296037 97.1404955738 66
34.4045339806 97.9433095868 64
34.4045339806 97.9433095868 62
34.4045339806 97.9433095868 60
34.6865383574 98.7461235998 58
34.6865383574 98.7461235998 56
34.6865383574 98.7461235998 54
35.814555865 101.957379652 52
36.0965602419 102.760193665 50
36.0965602419 102.760193665 48
36.0965602419 102.760193665 46
36.0965602419 102.760193665 44
36.0965602419 102.760193665 42
35.814555865 101.957379652 40
35.814555865 101.957379652 38
34.4045339806 97.9433095868 36
34.4045339806 97.9433095868 34
10.4341619449 29.7041184812 28
10.9981706987 31.3097465073 26
11.5621794525 32.9153745333 24
11.5621794525 32.9153745333 22
10.4341619449 29.7041184812 20
9.87015319114 28.0984904552 18
10.4341619449 29.7041184812 4
10.7161663218 30.5069324942 2
-41.8711864396 -125.964135797 378
-41.8711864396 -125.964135797 376
-41.8711864396 -125.964135797 374
-41.6027813984 -125.156673388 356
-41.6027813984 -125.156673388 354
-41.6027813984 -125.156673388 352
-41.6027813984 -125.156673388 350
-41.6027813984 -125.156673388 348
-40.5291612332 -121.926823753 346
-40.5291612332 -121.926823753 344
-40.5291612332 -121.926823753 342
-40.5291612332 -121.926823753 340
-40.5291612332 -121.926823753 338
-40.5291612332 -121.926823753 336
-40.5291612332 -121.926823753 334
-40.5291612332 -121.926823753 332
-40.5291612332 -121.926823753 330
-40.5291612332 -121.926823753 328
-40.5291612332 -121.926823753 326
-40.260756192 -121.119361344 324
-40.260756192 -121.119361344 322
-40.260756192 -121.119361344 320
-40.260756192 -121.119361344 318
-40.260756192 -121.119361344 316
-39.9923511507 -120.311898935 314
-39.9923511507 -120.311898935 312
-39.9923511507 -120.311898935 310
-39.9923511507 -120.311898935 308
-39.9923511507 -120.311898935 306
-39.9923511507 -120.311898935 304
-39.9923511507 -120.311898935 302
-39.9923511507 -120.311898935 300
-39.9923511507 -120.311898935 298
-39.9923511507 -120.311898935 296
-39.9923511507 -120.311898935 294
-39.1871360268 -117.889511708 292
-39.1871360268 -117.889511708 290
-38.9187309856 -117.082049299 288
-38.9187309856 -117.082049299 286
-38.9187309856 -117.082049299 284
-38.9187309856 -117.082049299 282
-38.9187309856 -117.082049299 280
-38.9187309856 -117.082049299 278
-38.9187309856 -117.082049299 276
-38.9187309856 -117.082049299 274
-38.9187309856 -117.082049299 272
-38.9187309856 -117.082049299 270
-38.9187309856 -117.082049299 268
-38.381920903 -115.467124481 266
-38.381920903 -115.467124481 264
-38.381920903 -115.467124481 262
-38.1135158617 -114.659662072 260
-38.1135158617 -114.659662072 258
-38.1135158617 -114.659662072 256
-38.1135158617 -114.659662072 254
-38.1135158617 -114.659662072 252
-37.8451108204 -113.852199663 250
-37.8451108204 -113.852199663 248
-37.8451108204 -113.852199663 246
-37.3083007379 -112.237274845 244
-37.3083007379 -112.237274845 242
-37.3083007379 -112.237274845 240
-37.3083007379 -112.237274845 238
-37.3083007379 -112.237274845 236
-37.0398956966 -111.429812436 234
-37.0398956966 -111.429812436 232
-37.0398956966 -111.429812436 230
-36.7714906553 -110.622350027 228
-36.7714906553 -110.622350027 226
-36.7714906553 -110.622350027 224
-36.7714906553 -110.622350027 222
-36.7714906553 -110.622350027 220
-36.503085614 -109.814887618 218
-36.503085614 -109.814887618 216
-36.503085614 -109.814887618 214
-36.2346805728 -109.007425209 212
-36.2346805728 -109.007425209 210
-35.9662755315 -108.1999628 208
-35.9662755315 -108.1999628 206
-35.9662755315 -108.1999628 204
-35.9662755315 -108.1999628 202
8.58896132095 25.8387970867 198
9.12577140351 27.4537219046 196
10.7362016512 32.2984963583 194
12.6150369401 37.950733221 192
12.6150369401 37.950733221 190
24.1564537152 72.6716168062 188
21.4724033024 64.5969927166 186
21.7408083437 65.4044551256 184
21.2039982611 63.7895303077 182
21.2039982611 63.7895303077 180
21.2039982611 63.7895303077 178
21.2039982611 63.7895303077 176
21.2039982611 63.7895303077 174
21.2039982611 63.7895303077 172
21.2039982611 63.7895303077 170
21.2039982611 63.7895303077 168
21.2039982611 63.7895303077 166
21.4724033024 64.5969927166 164
21.4724033024 64.5969927166 162
22.2776184262 67.0193799435 160
22.0092133849 66.2119175346 158
22.0092133849 66.2119175346 156
22.8144285088 68.6343047614 154
22.8144285088 68.6343047614 152
22.8144285088 68.6343047614 150
22.8144285088 68.6343047614 138
22.8144285088 68.6343047614 136
22.8144285088 68.6343047614 134
22.8144285088 68.6343047614 132
22.8144285088 68.6343047614 130
22.8144285088 68.6343047614 128
22.8144285088 68.6343047614 126
22.8144285088 68.6343047614 124
23.0828335501 69.4417671704 122
23.0828335501 69.4417671704 120
23.0828335501 69.4417671704 118
23.0828335501 69.4417671704 116
23.0828335501 69.4417671704 114
23.8880486739 71.8641543973 106
23.8880486739 71.8641543973 104
23.8880486739 71.8641543973 102
7.24693611455 21.8014850419 94
8.32055627967 25.0313346777 92
9.93098652735 29.8761091314 90
11.2730117337 33.9134211762 88
11.2730117337 33.9134211762 86
11.541416775 34.7208835852 84
9.93098652735 29.8761091314 82
31.4033898297 94.4731018481 80
31.4033898297 94.4731018481 78
31.9401999123 96.088026666 76
32.4770099948 97.7029514839 74
32.4770099948 97.7029514839 72
32.4770099948 97.7029514839 70
33.0138200774 99.3178763018 68
33.55063016 100.93280112 66
34.0874402425 102.547725938 64
34.0874402425 102.547725938 62
34.0874402425 102.547725938 60
34.3558452838 103.355188347 58
34.3558452838 103.355188347 56
34.3558452838 103.355188347 54
34.6242503251 104.162650756 52
34.6242503251 104.162650756 50
34.8926553664 104.970113165 48
34.8926553664 104.970113165 46
34.8926553664 104.970113165 44
9.93098652735 29.8761091314 28
10.7362016512 32.2984963583 26
11.0046066925 33.1059587673 24
11.0046066925 33.1059587673 22
9.93098652735 29.8761091314 20
9.39417644479 28.2611843135 18
9.93098652735 29.8761091314 4
9.93098652735 29.8761091314 2
-40.7566618326 -129.900872987 404
-40.7566618326 -129.900872987 402
-40.7566618326 -129.900872987 388
-40.7566618326 -129.900872987 386
-39.7377452868 -126.653351162 378
-39.7377452868 -126.653351162 376
-39.7377452868 -126.653351162 374
-39.4830161503 -125.841470706 356
-39.4830161503 -125.841470706 354
-39.4830161503 -125.841470706 352
-39.4830161503 -125.841470706 350
-39.4830161503 -125.841470706 348
-38.4640996045 -122.593948881 346
-38.4640996045 -122.593948881 344
-38.4640996045 -122.593948881 342
-38.4640996045 -122.593948881 340
-38.4640996045 -122.593948881 338
-38.4640996045 -122.593948881 336
-38.4640996045 -122.593948881 334
-38.4640996045 -122.593948881 332
-38.4640996045 -122.593948881 330
-38.4640996045 -122.593948881 328
-38.4640996045 -122.593948881 326
-38.209370468 -121.782068425 324
-38.209370468 -121.782068425 322
-38.209370468 -121.782068425 320
-38.209370468 -121.782068425 318
-38.209370468 -121.782068425 316
-37.9546413316 -120.970187969 314
-37.9546413316 -120.970187969 312
-37.9546413316 -120.970187969 310
-37.9546413316 -120.970187969 308
-37.9546413316 -120.970187969 306
-37.9546413316 -120.970187969 304
-37.9546413316 -120.970187969 302
-37.9546413316 -120.970187969 300
-37.9546413316 -120.970187969 298
-37.9546413316 -120.970187969 296
-37.9546413316 -120.970187969 294
-37.4451830587 -119.346427057 292
-37.4451830587 -119.346427057 290
-36.9357247858 -117.722666144 288
-36.9357247858 -117.722666144 286
-36.9357247858 -117.722666144 284
-36.9357247858 -117.722666144 282
-36.9357247858 -117.722666144 280
-36.9357247858 -117.722666144 278
-36.9357247858 -117.722666144 276
-36.9357247858 -117.722666144 274
-36.9357247858 -117.722666144 272
-36.9357247858 -117.722666144 270
-36.9357247858 -117.722666144 268
-36.4262665129 -116.098905232 266
-36.4262665129 -116.098905232 264
-36.4262665129 -116.098905232 262
-36.1715373764 -115.287024776 260
-36.1715373764 -115.287024776 258
-36.1715373764 -115.287024776 256
-36.1715373764 -115.287024776 254
-36.1715373764 -115.287024776 252
-35.91680824 -114.47514432 250
-35.91680824 -114.47514432 248
-35.91680824 -114.47514432 246
-35.407349967 -112.851383407 244
-35.407349967 -112.851383407 242
-35.407349967 -112.851383407 240
-35.407349967 -112.851383407 238
-35.407349967 -112.851383407 236
-35.1526208306 -112.039502951 234
-35.1526208306 -112.039502951 232
-35.1526208306 -112.039502951 230
-34.8978916941 -111.227622495 228
-34.8978916941 -111.227622495 226
-34.8978916941 -111.227622495 224
-34.8978916941 -111.227622495 222
-34.8978916941 -111.227622495 220
-34.6431625577 -110.415742039 218
-34.6431625577 -110.415742039 216
-34.6431625577 -110.415742039 214
-34.3884334212 -109.603861583 212
-34.3884334212 -109.603861583 210
-34.1337042848 -108.791981126 208
-34.1337042848 -108.791981126 206
-34.1337042848 -108.791981126 204
-34.1337042848 -108.791981126 202
9.17024891233 29.227696422 196
9.67970718524 30.8514573344 194
11.9722694133 38.1583814399 192
11.9722694133 38.1583814399 190
20.1236017798 64.1385560372 188
20.6330600527 65.7623169495 186
20.6330600527 65.7623169495 184
20.6330600527 65.7623169495 182
20.1236017798 64.1385560372 180
20.1236017798 64.1385560372 178
18.8499560976 60.0791537564 176
18.8499560976 60.0791537564 174
18.8499560976 60.0791537564 172
20.1236017798 64.1385560372 170
20.1236017798 64.1385560372 168
20.1236017798 64.1385560372 166
20.6330600527 65.7623169495 164
20.3783309163 64.9504364934 162
21.1425183256 67.3860778619 160
20.8877891892 66.5741974057 158
20.6330600527 65.7623169495 156
21.6519765986 69.0098387742 154
21.6519765986 69.0098387742 152
21.6519765986 69.0098387742 150
21.1425183256 67.3860778619 144
21.1425183256 67.3860778619 142
21.1425183256 67.3860778619 140
21.3972474621 68.197958318 138
21.3972474621 68.197958318 136
21.3972474621 68.197958318 134
21.6519765986 69.0098387742 132
21.6519765986 69.0098387742 130
21.6519765986 69.0098387742 128
21.6519765986 69.0098387742 126
21.6519765986 69.0098387742 124
21.906705735 69.8217192304 122
21.906705735 69.8217192304 120
21.906705735 69.8217192304 118
22.1614348715 70.6335996865 116
22.1614348715 70.6335996865 114
22.6708931444 72.2573605989 112
22.6708931444 72.2573605989 110
22.6708931444 72.2573605989 108
22.6708931444 72.2573605989 106
22.6708931444 72.2573605989 104
22.6708931444 72.2573605989 102
7.89660323006 25.1682941412 96
6.62295754779 21.1088918603 94
7.89660323006 25.1682941412 92
9.42497804878 30.0395768782 90
10.698623731 34.098979159 88
10.698623731 34.098979159 86
10.698623731 34.098979159 84
11.4628111404 36.5346205275 82
29.8033089651 94.9900133716 80
29.8033089651 94.9900133716 78
30.312767238 96.6137742839 76
30.5674963744 97.4256547401 74
30.5674963744 97.4256547401 72
30.5674963744 97.4256547401 70
31.3316837838 99.8612961086 68
31.8411420567 101.485057021 66
32.3506003296 103.108817933 64
32.3506003296 103.108817933 62
32.3506003296 103.108817933 60
32.6053294661 103.920698389 58
32.6053294661 103.920698389 56
32.6053294661 103.920698389 54
32.8600586025 104.732578846 52
9.42497804878 30.0395768782 28
10.1891654581 32.4752182467 26
9.93443632169 31.6633377905 24
9.93443632169 31.6633377905 22
9.42497804878 30.0395768782 20
8.91551977587 28.4158159659 18
9.42497804878 30.0395768782 4
9.67970718524 30.8514573344 2
-37.5929679533 -127.306435507 378
-37.5929679533 -127.306435507 376
-37.5929679533 -127.306435507 374
-37.3519873895 -126.490368613 356
-37.3519873895 -126.490368613 354
-37.3519873895 -126.490368613 352
-37.3519873895 -126.490368613 350
-37.3519873895 -126.490368613 348
-36.3880651343 -123.226101036 346
-36.3880651343 -123.226101036 344
-36.3880651343 -123.226101036 342
-36.3880651343 -123.226101036 340
-36.3880651343 -123.226101036 338
-36.3880651343 -123.226101036 336
-36.3880651343 -123.226101036 334
-36.3880651343 -123.226101036 332
-36.3880651343 -123.226101036 330
-36.3880651343 -123.226101036 328
-36.3880651343 -123.226101036 326
-36.3880651343 -123.226101036 324
-36.3880651343 -123.226101036 322
-36.1470845705 -122.410034141 320
-36.1470845705 -122.410034141 318
-36.1470845705 -122.410034141 316
-35.9061040067 -121.593967247 314
-35.9061040067 -121.593967247 312
-35.9061040067 -121.593967247 310
-35.9061040067 -121.593967247 308
-35.9061040067 -121.593967247 306
-35.9061040067 -121.593967247 304
-35.9061040067 -121.593967247 302
-35.9061040067 -121.593967247 300
-35.9061040067 -121.593967247 298
-35.9061040067 -121.593967247 296
-35.9061040067 -121.593967247 294
-35.1831623153 -119.145766564 292
-35.1831623153 -119.145766564 290
-34.9421817515 -118.32969967 288
-34.9421817515 -118.32969967 286
-34.9421817515 -118.32969967 284
-34.9421817515 -118.32969967 282
-34.9421817515 -118.32969967 280
-34.9421817515 -118.32969967 278
-34.9421817515 -118.32969967 276
-34.9421817515 -118.32969967 274
-34.9421817515 -118.32969967 272
-34.9421817515 -118.32969967 270
-34.9421817515 -118.32969967 268
-34.4602206239 -116.697565881 266
-34.4602206239 -116.697565881 264
-34.4602206239 -116.697565881 262
-34.2192400601 -115.881498987 260
-34.2192400601 -115.881498987 258
-34.2192400601 -115.881498987 256
-34.2192400601 -115.881498987 254
-34.2192400601 -115.881498987 252
-34.2192400601 -115.881498987 250
-34.2192400601 -115.881498987 248
-34.2192400601 -115.881498987 246
-33.4962983687 -113.433298304 244
-33.4962983687 -113.433298304 242
-33.4962983687 -113.433298304 240
-33.4962983687 -113.433298304 238
-33.4962983687 -113.433298304 236
-33.2553178049 -112.61723141 234
-33.2553178049 -112.61723141 232
-33.2553178049 -112.61723141 230
-33.0143372411 -111.801164516 228
-33.0143372411 -111.801164516 226
-33.0143372411 -111.801164516 224
-33.0143372411 -111.801164516 222
-33.0143372411 -111.801164516 220
-32.7733566773 -110.985097622 218
-32.7733566773 -110.985097622 216
-32.7733566773 -110.985097622 214
-32.5323761135 -110.169030727 212
-32.5323761135 -110.169030727 210
-32.2913955497 -109.352963833 208
-32.2913955497 -109.352963833 206
-32.2913955497 -109.352963833 204
-32.2913955497 -109.352963833 202
8.91628086073 30.1944750882 196
8.91628086073 30.1944750882 194
11.3260864988 38.355144031 192
11.3260864988 38.355144031 190
19.0374645405 64.4692846478 188
19.2784451043 65.2853515421 186
19.2784451043 65.2853515421 184
19.2784451043 65.2853515421 182
19.0374645405 64.4692846478 180
19.0374645405 64.4692846478 178
17.8325617215 60.3889501764 176
17.8325617215 60.3889501764 174
17.8325617215 60.3889501764 172
19.5194256681 66.1014184364 170
19.5194256681 66.1014184364 168
19.5194256681 66.1014184364 166
19.2784451043 65.2853515421 164
19.0374645405 64.4692846478 162
19.7604062319 66.9174853306 160
