-102.592389533 -8.6847289467 70
-104.288131508 -8.82827818549 68
-105.983873484 -8.97182742428 66
-107.67961546 -9.11537666307 64
-107.67961546 -9.11537666307 62
-107.67961546 -9.11537666307 60
-108.527486448 -9.18715128246 58
-108.527486448 -9.18715128246 56
-108.527486448 -9.18715128246 54
-104.288131508 -8.82827818549 52
-104.288131508 -8.82827818549 50
-103.44026052 -8.7565035661 48
-103.44026052 -8.7565035661 46
-103.44026052 -8.7565035661 44
-102.592389533 -8.6847289467 42
-102.592389533 -8.6847289467 40
-102.592389533 -8.6847289467 38
132.059898941 13.429179153 378
132.059898941 13.429179153 376
132.059898941 13.429179153 374
131.213361127 13.3430946713 356
131.213361127 13.3430946713 354
131.213361127 13.3430946713 352
131.213361127 13.3430946713 350
131.213361127 13.3430946713 348
127.827209872 12.9987567443 346
127.827209872 12.9987567443 344
127.827209872 12.9987567443 342
127.827209872 12.9987567443 340
127.827209872 12.9987567443 338
127.827209872 12.9987567443 336
127.827209872 12.9987567443 334
127.827209872 12.9987567443 332
127.827209872 12.9987567443 330
127.827209872 12.9987567443 328
127.827209872 12.9987567443 326
126.980672059 12.9126722625 324
126.980672059 12.9126722625 322
126.980672059 12.9126722625 320
126.980672059 12.9126722625 318
126.980672059 12.9126722625 316
126.134134245 12.8265877808 314
126.134134245 12.8265877808 312
126.134134245 12.8265877808 310
125.287596431 12.740503299 308
125.287596431 12.740503299 306
126.134134245 12.8265877808 304
126.134134245 12.8265877808 302
126.134134245 12.8265877808 300
126.134134245 12.8265877808 298
126.134134245 12.8265877808 296
126.134134245 12.8265877808 294
124.441058618 12.6544188173 292
124.441058618 12.6544188173 290
123.594520804 12.5683343355 288
123.594520804 12.5683343355 286
123.594520804 12.5683343355 284
122.74798299 12.4822498538 282
122.74798299 12.4822498538 280
122.74798299 12.4822498538 278
122.74798299 12.4822498538 276
122.74798299 12.4822498538 274
122.74798299 12.4822498538 272
122.74798299 12.4822498538 270
122.74798299 12.4822498538 268
121.054907363 12.3100808903 266
121.054907363 12.3100808903 264
121.054907363 12.3100808903 262
120.208369549 12.2239964085 260
120.208369549 12.2239964085 258
120.208369549 12.2239964085 256
120.208369549 12.2239964085 254
120.208369549 12.2239964085 252
119.361831735 12.1379119268 250
119.361831735 12.1379119268 248
119.361831735 12.1379119268 246
117.668756108 11.9657429633 244
117.668756108 11.9657429633 242
117.668756108 11.9657429633 240
117.668756108 11.9657429633 238
117.668756108 11.9657429633 236
116.822218294 11.8796584815 234
116.822218294 11.8796584815 232
116.822218294 11.8796584815 230
115.97568048 11.7935739998 228
115.97568048 11.7935739998 226
115.97568048 11.7935739998 224
115.97568048 11.7935739998 222
115.97568048 11.7935739998 220
115.129142667 11.707489518 218
115.129142667 11.707489518 216
115.129142667 11.707489518 214
114.282604853 11.6214050363 212
-96.5053107647 -9.81363091954 208
-111.742991412 -11.363151591 196
-110.896453598 -11.2770671093 194
-7.61884032353 -0.774760335753 192
-8.46537813725 -0.860844817503 190
-9.31191595098 -0.946929299253 188
-8.46537813725 -0.860844817503 186
-117.668756108 -11.9657429633 184
-119.361831735 -12.1379119268 182
-121.054907363 -12.3100808903 180
-121.054907363 -12.3100808903 178
-122.74798299 -12.4822498538 176
-122.74798299 -12.4822498538 174
-122.74798299 -12.4822498538 172
-125.287596431 -12.740503299 170
-125.287596431 -12.740503299 168
-125.287596431 -12.740503299 166
-126.134134245 -12.8265877808 164
-126.134134245 -12.8265877808 162
-127.827209872 -12.9987567443 160
-127.827209872 -12.9987567443 158
-127.827209872 -12.9987567443 156
-129.5202855 -13.1709257078 154
-129.5202855 -13.1709257078 152
-129.5202855 -13.1709257078 150
-129.5202855 -13.1709257078 148
-129.5202855 -13.1709257078 146
-130.366823314 -13.2570101895 144
-130.366823314 -13.2570101895 142
-130.366823314 -13.2570101895 140
-130.366823314 -13.2570101895 138
-130.366823314 -13.2570101895 136
-130.366823314 -13.2570101895 134
-130.366823314 -13.2570101895 132
-130.366823314 -13.2570101895 130
-130.366823314 -13.2570101895 128
-130.366823314 -13.2570101895 126
-130.366823314 -13.2570101895 124
-130.366823314 -13.2570101895 122
-130.366823314 -13.2570101895 120
-130.366823314 -13.2570101895 118
-129.5202855 -13.1709257078 116
-129.5202855 -13.1709257078 114
-130.366823314 -13.2570101895 112
-130.366823314 -13.2570101895 110
-78.7280166764 -8.00585680278 92
-101.584537647 -10.33013781 76
-102.431075461 -10.4162222918 74
-102.431075461 -10.4162222918 72
-102.431075461 -10.4162222918 70
-104.124151088 -10.5883912553 68
-105.817226716 -10.7605602188 66
-108.356840157 -11.018813664 64
-108.356840157 -11.018813664 62
-108.356840157 -11.018813664 60
-109.203377971 -11.1048981458 58
-109.203377971 -11.1048981458 56
-109.203377971 -11.1048981458 54
-104.124151088 -10.5883912553 52
-104.124151088 -10.5883912553 50
-103.277613274 -10.5023067735 48
-103.277613274 -10.5023067735 46
-103.277613274 -10.5023067735 44
-102.431075461 -10.4162222918 42
-102.431075461 -10.4162222918 40
-102.431075461 -10.4162222918 38
135.194102977 16.0591658186 404
135.194102977 16.0591658186 402
131.814250402 15.6576866731 378
131.814250402 15.6576866731 376
131.814250402 15.6576866731 374
130.969287259 15.5573168867 368
130.969287259 15.5573168867 366
130.969287259 15.5573168867 364
130.969287259 15.5573168867 356
130.969287259 15.5573168867 354
130.969287259 15.5573168867 352
130.969287259 15.5573168867 350
130.969287259 15.5573168867 348
127.589434684 15.1558377413 346
127.589434684 15.1558377413 344
127.589434684 15.1558377413 342
128.434397828 15.2562075277 340
128.434397828 15.2562075277 338
127.589434684 15.1558377413 336
127.589434684 15.1558377413 334
127.589434684 15.1558377413 332
127.589434684 15.1558377413 330
127.589434684 15.1558377413 328
127.589434684 15.1558377413 326
126.744471541 15.0554679549 324
126.744471541 15.0554679549 322
126.744471541 15.0554679549 320
126.744471541 15.0554679549 318
126.744471541 15.0554679549 316
125.899508397 14.9550981686 314
125.899508397 14.9550981686 312
125.899508397 14.9550981686 310
125.054545253 14.8547283822 308
125.054545253 14.8547283822 306
125.899508397 14.9550981686 304
125.899508397 14.9550981686 302
125.899508397 14.9550981686 300
125.054545253 14.8547283822 298
125.054545253 14.8547283822 296
125.054545253 14.8547283822 294
123.364618966 14.6539888095 292
123.364618966 14.6539888095 290
123.364618966 14.6539888095 288
123.364618966 14.6539888095 286
123.364618966 14.6539888095 284
122.519655823 14.5536190231 282
122.519655823 14.5536190231 280
122.519655823 14.5536190231 278
122.519655823 14.5536190231 276
122.519655823 14.5536190231 274
122.519655823 14.5536190231 272
122.519655823 14.5536190231 270
122.519655823 14.5536190231 268
120.829729535 14.3528794504 266
120.829729535 14.3528794504 264
120.829729535 14.3528794504 262
119.984766392 14.252509664 260
119.984766392 14.252509664 258
119.984766392 14.252509664 256
119.984766392 14.252509664 254
119.984766392 14.252509664 252
119.139803248 14.1521398776 250
119.139803248 14.1521398776 248
119.139803248 14.1521398776 246
117.449876961 13.9514003049 244
117.449876961 13.9514003049 242
117.449876961 13.9514003049 240
117.449876961 13.9514003049 238
117.449876961 13.9514003049 236
116.604913817 13.8510305185 234
116.604913817 13.8510305185 232
116.604913817 13.8510305185 230
115.759950674 13.7506607322 228
115.759950674 13.7506607322 226
115.759950674 13.7506607322 224
115.759950674 13.7506607322 222
115.759950674 13.7506607322 220
114.91498753 13.6502909458 218
114.91498753 13.6502909458 216
114.91498753 13.6502909458 214
-97.1707615145 -11.5425254321 208
-97.1707615145 -11.5425254321 206
-98.8606878017 -11.7432650048 204
-109.000245525 -12.9477024412 196
-109.000245525 -12.9477024412 194
-5.91474200523 -0.702588504563 192
-6.75970514883 -0.802958290929 190
-6.75970514883 -0.802958290929 188
-7.60466829244 -0.903328077295 186
-7.60466829244 -0.903328077295 184
0.0 0.0 182
-120.829729535 -14.3528794504 180
-121.674692679 -14.4532492367 178
-122.519655823 -14.5536190231 176
-122.519655823 -14.5536190231 174
-122.519655823 -14.5536190231 172
-125.054545253 -14.8547283822 170
-125.054545253 -14.8547283822 168
-125.899508397 -14.9550981686 166
-126.744471541 -15.0554679549 164
-126.744471541 -15.0554679549 162
-127.589434684 -15.1558377413 160
-127.589434684 -15.1558377413 158
-127.589434684 -15.1558377413 156
-127.589434684 -15.1558377413 154
-127.589434684 -15.1558377413 152
-127.589434684 -15.1558377413 150
-129.279360971 -15.356577314 148
-129.279360971 -15.356577314 146
-130.124324115 -15.4569471004 144
-130.124324115 -15.4569471004 142
-130.124324115 -15.4569471004 140
-130.124324115 -15.4569471004 138
-130.124324115 -15.4569471004 136
-130.124324115 -15.4569471004 134
-130.124324115 -15.4569471004 132
-130.124324115 -15.4569471004 130
-130.124324115 -15.4569471004 128
-130.124324115 -15.4569471004 126
-130.124324115 -15.4569471004 124
-130.124324115 -15.4569471004 122
-130.124324115 -15.4569471004 120
-130.124324115 -15.4569471004 118
-130.124324115 -15.4569471004 116
-130.124324115 -15.4569471004 114
-76.0466829244 -9.03328077295 92
-101.395577232 -12.0443743639 76
-101.395577232 -12.0443743639 74
-103.08550352 -12.2451139367 72
-103.08550352 -12.2451139367 70
-105.620392951 -12.5462232958 68
-105.620392951 -12.5462232958 66
-107.310319238 -12.7469628685 64
-107.310319238 -12.7469628685 62
-107.310319238 -12.7469628685 60
-109.845208669 -13.0480722276 58
-109.845208669 -13.0480722276 56
-109.845208669 -13.0480722276 54
-103.930466663 -12.345483723 52
-103.930466663 -12.345483723 50
-103.08550352 -12.2451139367 48
-103.08550352 -12.2451139367 46
-103.08550352 -12.2451139367 44
-102.240540376 -12.1447441503 42
-102.240540376 -12.1447441503 40
-102.240540376 -12.1447441503 38
-101.395577232 -12.0443743639 36
-99.7056509453 -11.8436347912 34
131.530998569 17.8817274485 378
131.530998569 17.8817274485 376
131.530998569 17.8817274485 374
130.687851142 17.7671009905 362
130.687851142 17.7671009905 360
130.687851142 17.7671009905 358
130.687851142 17.7671009905 356
130.687851142 17.7671009905 354
130.687851142 17.7671009905 352
130.687851142 17.7671009905 350
130.687851142 17.7671009905 348
127.315261435 17.3085951585 346
127.315261435 17.3085951585 344
127.315261435 17.3085951585 342
127.315261435 17.3085951585 340
127.315261435 17.3085951585 338
127.315261435 17.3085951585 336
127.315261435 17.3085951585 334
127.315261435 17.3085951585 332
127.315261435 17.3085951585 330
127.315261435 17.3085951585 328
127.315261435 17.3085951585 326
126.472114009 17.1939687005 324
126.472114009 17.1939687005 322
127.315261435 17.3085951585 320
127.315261435 17.3085951585 318
127.315261435 17.3085951585 316
125.628966582 17.0793422425 314
125.628966582 17.0793422425 312
125.628966582 17.0793422425 310
125.628966582 17.0793422425 308
125.628966582 17.0793422425 306
125.628966582 17.0793422425 304
125.628966582 17.0793422425 302
125.628966582 17.0793422425 300
125.628966582 17.0793422425 298
125.628966582 17.0793422425 296
125.628966582 17.0793422425 294
123.099524302 16.7354628685 292
123.099524302 16.7354628685 290
122.256376875 16.6208364105 288
122.256376875 16.6208364105 286
122.256376875 16.6208364105 284
122.256376875 16.6208364105 282
122.256376875 16.6208364105 280
122.256376875 16.6208364105 278
122.256376875 16.6208364105 276
122.256376875 16.6208364105 274
122.256376875 16.6208364105 272
122.256376875 16.6208364105 270
122.256376875 16.6208364105 268
120.570082021 16.3915834944 266
120.570082021 16.3915834944 264
120.570082021 16.3915834944 262
119.726934595 16.2769570364 260
119.726934595 16.2769570364 258
118.883787168 16.1623305784 256
118.883787168 16.1623305784 254
118.883787168 16.1623305784 252
118.883787168 16.1623305784 250
118.883787168 16.1623305784 248
118.883787168 16.1623305784 246
117.197492315 15.9330776624 244
117.197492315 15.9330776624 242
117.197492315 15.9330776624 240
117.197492315 15.9330776624 238
117.197492315 15.9330776624 236
116.354344888 15.8184512044 234
116.354344888 15.8184512044 232
116.354344888 15.8184512044 230
115.511197461 15.7038247464 228
115.511197461 15.7038247464 226
115.511197461 15.7038247464 224
115.511197461 15.7038247464 222
115.511197461 15.7038247464 220
114.668050034 15.5891982884 218
114.668050034 15.5891982884 216
114.668050034 15.5891982884 214
-111.295460327 -15.1306924564 196
-110.452312901 -15.0160659984 194
0.843147426723 0.114626458003 192
-4.21573713362 -0.573132290016 190
-5.05888456034 -0.687758748019 188
-6.74517941379 -0.917011664025 186
-6.74517941379 -0.917011664025 184
-0.843147426723 -0.114626458003 182
-120.570082021 -16.3915834944 180
-121.413229448 -16.5062099525 178
-122.256376875 -16.6208364105 176
-122.256376875 -16.6208364105 174
-122.256376875 -16.6208364105 172
-123.099524302 -16.7354628685 170
-123.099524302 -16.7354628685 168
-123.099524302 -16.7354628685 166
-125.628966582 -17.0793422425 164
-125.628966582 -17.0793422425 162
-127.315261435 -17.3085951585 160
-127.315261435 -17.3085951585 158
-127.315261435 -17.3085951585 156
-128.158408862 -17.4232216165 154
-128.158408862 -17.4232216165 152
-128.158408862 -17.4232216165 150
-129.001556289 -17.5378480745 148
-129.001556289 -17.5378480745 146
-129.844703715 -17.6524745325 144
-129.844703715 -17.6524745325 142
-129.844703715 -17.6524745325 140
-129.844703715 -17.6524745325 138
-129.844703715 -17.6524745325 136
-129.844703715 -17.6524745325 134
-129.844703715 -17.6524745325 132
-129.844703715 -17.6524745325 130
-129.844703715 -17.6524745325 128
-129.844703715 -17.6524745325 126
-129.844703715 -17.6524745325 124
-129.844703715 -17.6524745325 122
-129.844703715 -17.6524745325 120
-129.844703715 -17.6524745325 118
-129.844703715 -17.6524745325 116
-129.844703715 -17.6524745325 114
-125.628966582 -17.0793422425 112
-75.8832684051 -10.3163812203 92
-101.177691207 -13.7551749604 76
-101.177691207 -13.7551749604 74
-101.177691207 -13.7551749604 72
-101.177691207 -13.7551749604 70
-105.39342834 -14.3283072504 68
-105.39342834 -14.3283072504 66
-107.079723194 -14.5575601664 64
-107.079723194 -14.5575601664 62
-107.079723194 -14.5575601664 60
-108.766018047 -14.7868130824 58
-108.766018047 -14.7868130824 56
-108.766018047 -14.7868130824 54
-108.766018047 -14.7868130824 52
-108.766018047 -14.7868130824 50
-108.766018047 -14.7868130824 48
-108.766018047 -14.7868130824 46
-108.766018047 -14.7868130824 44
-105.39342834 -14.3283072504 42
-103.707133487 -14.0990543344 40
-103.707133487 -14.0990543344 38
-102.86398606 -13.9844278764 36
-102.86398606 -13.9844278764 34
134.57458897 20.6160687346 404
134.57458897 20.6160687346 402
131.210224246 20.1006670162 378
131.210224246 20.1006670162 376
131.210224246 20.1006670162 374
130.369133064 19.9718165866 362
130.369133064 19.9718165866 360
130.369133064 19.9718165866 358
130.369133064 19.9718165866 356
130.369133064 19.9718165866 354
130.369133064 19.9718165866 352
130.369133064 19.9718165866 350
130.369133064 19.9718165866 348
127.00476834 19.4564148682 346
127.00476834 19.4564148682 344
127.00476834 19.4564148682 342
127.00476834 19.4564148682 340
127.00476834 19.4564148682 338
127.00476834 19.4564148682 336
127.00476834 19.4564148682 334
127.00476834 19.4564148682 332
127.00476834 19.4564148682 330
127.00476834 19.4564148682 328
127.00476834 19.4564148682 326
127.00476834 19.4564148682 324
127.00476834 19.4564148682 322
126.163677159 19.3275644387 320
126.163677159 19.3275644387 318
126.163677159 19.3275644387 316
125.322585978 19.1987140091 314
125.322585978 19.1987140091 312
125.322585978 19.1987140091 310
125.322585978 19.1987140091 308
125.322585978 19.1987140091 306
125.322585978 19.1987140091 304
125.322585978 19.1987140091 302
125.322585978 19.1987140091 300
125.322585978 19.1987140091 298
125.322585978 19.1987140091 296
125.322585978 19.1987140091 294
123.640403616 18.9410131499 292
123.640403616 18.9410131499 290
121.958221254 18.6833122907 288
121.958221254 18.6833122907 286
121.958221254 18.6833122907 284
121.958221254 18.6833122907 282
121.958221254 18.6833122907 280
121.958221254 18.6833122907 278
121.958221254 18.6833122907 276
121.958221254 18.6833122907 274
121.958221254 18.6833122907 272
121.958221254 18.6833122907 270
121.958221254 18.6833122907 268
120.276038892 18.4256114315 266
120.276038892 18.4256114315 264
120.276038892 18.4256114315 262
119.434947711 18.2967610019 260
119.434947711 18.2967610019 258
118.59385653 18.1679105723 256
118.59385653 18.1679105723 254
118.59385653 18.1679105723 252
118.59385653 18.1679105723 250
118.59385653 18.1679105723 248
118.59385653 18.1679105723 246
116.911674167 17.9102097132 244
116.911674167 17.9102097132 242
116.911674167 17.9102097132 240
116.911674167 17.9102097132 238
116.911674167 17.9102097132 236
116.911674167 17.9102097132 234
116.911674167 17.9102097132 232
116.911674167 17.9102097132 230
115.229491805 17.652508854 228
115.229491805 17.652508854 226
115.229491805 17.652508854 224
115.229491805 17.652508854 222
115.229491805 17.652508854 220
114.388400624 17.5236584244 218
114.388400624 17.5236584244 216
114.388400624 17.5236584244 214
113.547309443 17.3948079948 212
-111.0240359 -17.008256706 196
-111.0240359 -17.008256706 194
-2.52327354318 -0.386551288773 192
-2.52327354318 -0.386551288773 190
-3.36436472424 -0.515401718364 188
-5.04654708637 -0.773102577546 186
-5.04654708637 -0.773102577546 184
-117.752765349 -18.0390601427 182
-120.276038892 -18.4256114315 180
-121.117130073 -18.5544618611 178
-121.958221254 -18.6833122907 176
-121.958221254 -18.6833122907 174
-121.958221254 -18.6833122907 172
-124.481494797 -19.0698635795 170
-124.481494797 -19.0698635795 168
-125.322585978 -19.1987140091 166
-125.322585978 -19.1987140091 164
-125.322585978 -19.1987140091 162
-126.163677159 -19.3275644387 160
-126.163677159 -19.3275644387 158
-126.163677159 -19.3275644387 156
-127.00476834 -19.4564148682 154
-127.00476834 -19.4564148682 152
-127.00476834 -19.4564148682 150
-128.686950702 -19.7141157274 148
-128.686950702 -19.7141157274 146
-129.528041883 -19.842966157 144
-129.528041883 -19.842966157 142
-129.528041883 -19.842966157 140
-129.528041883 -19.842966157 138
-129.528041883 -19.842966157 136
-129.528041883 -19.842966157 134
-129.528041883 -19.842966157 132
-129.528041883 -19.842966157 130
-129.528041883 -19.842966157 128
-129.528041883 -19.842966157 126
-129.528041883 -19.842966157 124
-128.686950702 -19.7141157274 122
-128.686950702 -19.7141157274 120
-128.686950702 -19.7141157274 118
-129.528041883 -19.842966157 116
-129.528041883 -19.842966157 114
-128.686950702 -19.7141157274 112
-75.6982062955 -11.5965386632 92
-74.8571151144 -11.4676882336 90
-74.8571151144 -11.4676882336 88
-74.8571151144 -11.4676882336 86
-71.4927503902 -10.9522865152 84
-71.4927503902 -10.9522865152 82
-99.2487593652 -15.2043506917 70
-108.500762357 -16.6217054172 52
-108.500762357 -16.6217054172 50
-108.500762357 -16.6217054172 48
-108.500762357 -16.6217054172 46
-108.500762357 -16.6217054172 44
-104.295306452 -15.9774532693 42
-102.613124089 -15.7197524101 40
-102.613124089 -15.7197524101 38
-102.613124089 -15.7197524101 36
-102.613124089 -15.7197524101 34
134.207198914 22.8860229421 404
134.207198914 22.8860229421 402
130.852018941 22.3138723685 378
130.852018941 22.3138723685 376
130.852018941 22.3138723685 374
130.013223948 22.1708347251 356
130.013223948 22.1708347251 354
130.013223948 22.1708347251 352
130.013223948 22.1708347251 350
130.013223948 22.1708347251 348
126.658043975 21.5986841516 346
126.658043975 21.5986841516 344
126.658043975 21.5986841516 342
126.658043975 21.5986841516 340
126.658043975 21.5986841516 338
126.658043975 21.5986841516 336
126.658043975 21.5986841516 334
126.658043975 21.5986841516 332
126.658043975 21.5986841516 330
126.658043975 21.5986841516 328
126.658043975 21.5986841516 326
126.658043975 21.5986841516 324
126.658043975 21.5986841516 322
126.658043975 21.5986841516 320
126.658043975 21.5986841516 318
126.658043975 21.5986841516 316
124.980453989 21.3126088648 314
124.980453989 21.3126088648 312
124.980453989 21.3126088648 310
124.141658995 21.1695712214 308
124.141658995 21.1695712214 306
124.980453989 21.3126088648 304
124.980453989 21.3126088648 302
124.980453989 21.3126088648 300
124.980453989 21.3126088648 298
124.980453989 21.3126088648 296
124.980453989 21.3126088648 294
122.464069009 20.8834959346 292
122.464069009 20.8834959346 290
121.625274016 20.7404582913 288
121.625274016 20.7404582913 286
121.625274016 20.7404582913 284
121.625274016 20.7404582913 282
121.625274016 20.7404582913 280
121.625274016 20.7404582913 278
121.625274016 20.7404582913 276
121.625274016 20.7404582913 274
121.625274016 20.7404582913 272
121.625274016 20.7404582913 270
121.625274016 20.7404582913 268
119.947684029 20.4543830045 266
119.947684029 20.4543830045 264
119.947684029 20.4543830045 262
119.108889036 20.3113453611 260
119.108889036 20.3113453611 258
119.108889036 20.3113453611 256
119.108889036 20.3113453611 254
119.108889036 20.3113453611 252
119.108889036 20.3113453611 250
119.108889036 20.3113453611 248
119.108889036 20.3113453611 246
116.592504057 19.8822324309 244
116.592504057 19.8822324309 242
116.592504057 19.8822324309 240
116.592504057 19.8822324309 238
116.592504057 19.8822324309 236
116.592504057 19.8822324309 234
116.592504057 19.8822324309 232
116.592504057 19.8822324309 230
114.91491407 19.5961571442 228
114.91491407 19.5961571442 226
114.91491407 19.5961571442 224
114.91491407 19.5961571442 222
114.91491407 19.5961571442 220
114.076119077 19.4531195008 218
114.076119077 19.4531195008 216
114.076119077 19.4531195008 214
-108.204554124 -18.451855997 196
-108.204554124 -18.451855997 194
-6.7103599457 -1.1443011471 192
-0.838794993213 -0.143037643388 190
-0.838794993213 -0.143037643388 188
-1.67758998643 -0.286075286776 186
-3.35517997285 -0.572150573552 184
-8.38794993213 -1.43037643388 182
-119.947684029 -20.4543830045 180
-120.786479023 -20.5974206479 178
-121.625274016 -20.7404582913 176
-121.625274016 -20.7404582913 174
-121.625274016 -20.7404582913 172
-124.141658995 -21.1695712214 170
-124.980453989 -21.3126088648 168
-124.980453989 -21.3126088648 166
-124.980453989 -21.3126088648 164
-124.980453989 -21.3126088648 162
-126.658043975 -21.5986841516 160
-126.658043975 -21.5986841516 158
-126.658043975 -21.5986841516 156
-126.658043975 -21.5986841516 154
-126.658043975 -21.5986841516 152
-126.658043975 -21.5986841516 150
-128.335633962 -21.8847594384 148
-128.335633962 -21.8847594384 146
-129.174428955 -22.0277970817 144
-129.174428955 -22.0277970817 142
-129.174428955 -22.0277970817 140
-129.174428955 -22.0277970817 138
-129.174428955 -22.0277970817 136
-129.174428955 -22.0277970817 134
-129.174428955 -22.0277970817 132
-129.174428955 -22.0277970817 130
-129.174428955 -22.0277970817 128
-129.174428955 -22.0277970817 126
-129.174428955 -22.0277970817 124
-129.174428955 -22.0277970817 122
-129.174428955 -22.0277970817 120
-129.174428955 -22.0277970817 118
-128.335633962 -21.8847594384 116
-128.335633962 -21.8847594384 114
-124.980453989 -21.3126088648 112
-100.655399186 -17.1645172066 74
-100.655399186 -17.1645172066 72
-100.655399186 -17.1645172066 70
-101.494194179 -17.3075548499 68
-108.204554124 -18.451855997 54
-108.204554124 -18.451855997 52
-108.204554124 -18.451855997 50
-108.204554124 -18.451855997 48
-108.204554124 -18.451855997 46
-108.204554124 -18.451855997 44
-108.204554124 -18.451855997 42
-104.849374152 -17.8797054235 40
-104.010579158 -17.7366677801 38
-102.332989172 -17.4505924933 36
-102.332989172 -17.4505924933 34
133.801522916 25.1494483421 404
133.801522916 25.1494483421 402
130.456484843 24.5207121336 378
130.456484843 24.5207121336 376
130.456484843 24.5207121336 374
129.620225325 24.3635280814 368
129.620225325 24.3635280814 366
129.620225325 24.3635280814 364
129.620225325 24.3635280814 356
129.620225325 24.3635280814 354
129.620225325 24.3635280814 352
129.620225325 24.3635280814 350
129.620225325 24.3635280814 348
126.275187252 23.7347918729 346
126.275187252 23.7347918729 344
126.275187252 23.7347918729 342
126.275187252 23.7347918729 340
126.275187252 23.7347918729 338
126.275187252 23.7347918729 336
126.275187252 23.7347918729 334
126.275187252 23.7347918729 332
126.275187252 23.7347918729 330
126.275187252 23.7347918729 328
126.275187252 23.7347918729 326
125.438927733 23.5776078207 324
125.438927733 23.5776078207 322
124.602668215 23.4204237686 314
124.602668215 23.4204237686 312
124.602668215 23.4204237686 310
123.766408697 23.2632397165 308
123.766408697 23.2632397165 306
124.602668215 23.4204237686 304
124.602668215 23.4204237686 302
124.602668215 23.4204237686 300
124.602668215 23.4204237686 298
124.602668215 23.4204237686 296
124.602668215 23.4204237686 294
122.093889661 22.9488716122 292
122.093889661 22.9488716122 290
121.257630142 22.7916875601 288
121.257630142 22.7916875601 286
121.257630142 22.7916875601 284
121.257630142 22.7916875601 282
121.257630142 22.7916875601 280
121.257630142 22.7916875601 278
121.257630142 22.7916875601 276
121.257630142 22.7916875601 274
120.421370624 22.6345035079 272
120.421370624 22.6345035079 270
120.421370624 22.6345035079 268
119.585111106 22.4773194558 266
119.585111106 22.4773194558 264
119.585111106 22.4773194558 262
118.748851588 22.3201354036 260
118.748851588 22.3201354036 258
118.748851588 22.3201354036 256
118.748851588 22.3201354036 254
118.748851588 22.3201354036 252
118.748851588 22.3201354036 250
118.748851588 22.3201354036 248
118.748851588 22.3201354036 246
116.240073033 21.8485832472 244
116.240073033 21.8485832472 242
116.240073033 21.8485832472 240
116.240073033 21.8485832472 238
116.240073033 21.8485832472 236
114.567553997 21.5342151429 234
114.567553997 21.5342151429 232
114.567553997 21.5342151429 230
114.567553997 21.5342151429 228
114.567553997 21.5342151429 226
114.567553997 21.5342151429 224
114.567553997 21.5342151429 222
114.567553997 21.5342151429 220
113.731294478 21.3770310908 218
113.731294478 21.3770310908 216
113.731294478 21.3770310908 214
9.19885470045 1.72902457352 192
0.836259518223 0.157184052138 190
0.836259518223 0.157184052138 188
0.0 0.0 186
-0.836259518223 -0.157184052138 184
-3.34503807289 -0.628736208553 182
-119.585111106 -22.4773194558 180
-120.421370624 -22.6345035079 178
-121.257630142 -22.7916875601 176
-121.257630142 -22.7916875601 174
-121.257630142 -22.7916875601 172
-122.930149179 -23.1060556643 170
-122.930149179 -23.1060556643 168
-123.766408697 -23.2632397165 166
-124.602668215 -23.4204237686 164
-124.602668215 -23.4204237686 162
-126.275187252 -23.7347918729 160
-126.275187252 -23.7347918729 158
-126.275187252 -23.7347918729 156
-127.11144677 -23.891975925 154
-127.11144677 -23.891975925 152
-127.11144677 -23.891975925 150
-127.947706288 -24.0491599772 148
-127.947706288 -24.0491599772 146
-128.783965806 -24.2063440293 144
-128.783965806 -24.2063440293 142
-128.783965806 -24.2063440293 140
-128.783965806 -24.2063440293 138
-128.783965806 -24.2063440293 136
-128.783965806 -24.2063440293 134
-128.783965806 -24.2063440293 132
-128.783965806 -24.2063440293 130
-128.783965806 -24.2063440293 128
-128.783965806 -24.2063440293 126
-128.783965806 -24.2063440293 124
-127.947706288 -24.0491599772 122
-127.947706288 -24.0491599772 120
-127.947706288 -24.0491599772 118
-127.947706288 -24.0491599772 116
-127.947706288 -24.0491599772 114
-127.947706288 -24.0491599772 112
-71.0820590489 -13.3606444318 90
-71.0820590489 -13.3606444318 88
-71.0820590489 -13.3606444318 86
-99.5148826685 -18.7049022045 74
-99.5148826685 -18.7049022045 72
-100.351142187 -18.8620862566 70
-100.351142187 -18.8620862566 68
-100.351142187 -18.8620862566 66
-102.023661223 -19.1764543609 64
-105.368699296 -19.8051905694 58
-106.204958814 -19.9623746216 56
-107.041218332 -20.1195586737 54
-107.877477851 -20.2767427258 52
-107.877477851 -20.2767427258 50
-107.041218332 -20.1195586737 48
-107.041218332 -20.1195586737 46
-107.041218332 -20.1195586737 44
-105.368699296 -19.8051905694 42
-105.368699296 -19.8051905694 40
-105.368699296 -19.8051905694 38
-102.023661223 -19.1764543609 36
-102.023661223 -19.1764543609 34
133.357676704 27.4056992363 404
133.357676704 27.4056992363 402
130.023734786 26.7205567554 378
130.023734786 26.7205567554 376
130.023734786 26.7205567554 374
129.190249307 26.5492711352 356
129.190249307 26.5492711352 354
129.190249307 26.5492711352 352
129.190249307 26.5492711352 350
129.190249307 26.5492711352 348
125.856307389 25.8641286543 346
125.856307389 25.8641286543 344
125.856307389 25.8641286543 342
125.856307389 25.8641286543 340
125.856307389 25.8641286543 338
125.856307389 25.8641286543 336
125.856307389 25.8641286543 334
125.856307389 25.8641286543 332
125.856307389 25.8641286543 330
125.856307389 25.8641286543 328
125.856307389 25.8641286543 326
125.856307389 25.8641286543 324
125.856307389 25.8641286543 322
124.18933643 25.5215574138 314
124.18933643 25.5215574138 312
124.18933643 25.5215574138 310
124.18933643 25.5215574138 308
124.18933643 25.5215574138 306
124.18933643 25.5215574138 304
124.18933643 25.5215574138 302
124.18933643 25.5215574138 300
124.18933643 25.5215574138 298
124.18933643 25.5215574138 296
124.18933643 25.5215574138 294
121.688879992 25.0077005531 292
121.688879992 25.0077005531 290
121.688879992 25.0077005531 288
121.688879992 25.0077005531 286
121.688879992 25.0077005531 284
120.855394513 24.8364149329 282
120.855394513 24.8364149329 280
120.855394513 24.8364149329 278
120.855394513 24.8364149329 276
120.855394513 24.8364149329 274
120.855394513 24.8364149329 272
120.855394513 24.8364149329 270
120.855394513 24.8364149329 268
119.188423554 24.4938436925 266
119.188423554 24.4938436925 264
119.188423554 24.4938436925 262
118.354938075 24.3225580722 260
118.354938075 24.3225580722 258
118.354938075 24.3225580722 256
118.354938075 24.3225580722 254
118.354938075 24.3225580722 252
117.521452595 24.151272452 250
117.521452595 24.151272452 248
117.521452595 24.151272452 246
115.854481636 23.8087012115 244
115.854481636 23.8087012115 242
115.854481636 23.8087012115 240
115.854481636 23.8087012115 238
115.854481636 23.8087012115 236
115.020996157 23.6374155913 234
115.020996157 23.6374155913 232
115.020996157 23.6374155913 230
114.187510678 23.4661299711 228
114.187510678 23.4661299711 226
114.187510678 23.4661299711 224
114.187510678 23.4661299711 222
114.187510678 23.4661299711 220
113.354025198 23.2948443509 218
113.354025198 23.2948443509 216
113.354025198 23.2948443509 214
112.520539719 23.1235587306 212
-4.16742739699 -0.856428101135 192
0.833485479398 0.171285620227 190
1.6669709588 0.342571240454 188
1.6669709588 0.342571240454 186
0.833485479398 0.171285620227 184
1.6669709588 0.342571240454 182
-119.188423554 -24.4938436925 180
-120.021909033 -24.6651293127 178
-120.855394513 -24.8364149329 176
-120.855394513 -24.8364149329 174
-120.855394513 -24.8364149329 172
-123.355850951 -25.3502717936 170
-123.355850951 -25.3502717936 168
-123.355850951 -25.3502717936 166
-124.18933643 -25.5215574138 164
-124.18933643 -25.5215574138 162
-125.02282191 -25.692843034 160
-125.02282191 -25.692843034 158
-125.02282191 -25.692843034 156
-125.856307389 -25.8641286543 154
-125.856307389 -25.8641286543 152
-125.856307389 -25.8641286543 150
-127.523278348 -26.2066998947 148
-127.523278348 -26.2066998947 146
-128.356763827 -26.3779855149 144
-128.356763827 -26.3779855149 142
-128.356763827 -26.3779855149 140
-128.356763827 -26.3779855149 138
-128.356763827 -26.3779855149 136
-128.356763827 -26.3779855149 134
-128.356763827 -26.3779855149 132
-128.356763827 -26.3779855149 130
-128.356763827 -26.3779855149 128
-128.356763827 -26.3779855149 126
-128.356763827 -26.3779855149 124
-127.523278348 -26.2066998947 122
-127.523278348 -26.2066998947 120
-127.523278348 -26.2066998947 118
-127.523278348 -26.2066998947 116
-127.523278348 -26.2066998947 114
-124.18933643 -25.5215574138 112
-72.5132367077 -14.9018489597 90
-71.6797512283 -14.7305633395 88
-71.6797512283 -14.7305633395 86
-70.0127802695 -14.3879920991 84
-70.0127802695 -14.3879920991 82
-98.351286569 -20.2117031868 76
-99.1847720484 -20.382988807 74
-99.1847720484 -20.382988807 72
-99.1847720484 -20.382988807 70
-100.851743007 -20.7255600475 68
-100.851743007 -20.7255600475 66
-101.685228487 -20.8968456677 64
-101.685228487 -20.8968456677 62
-101.685228487 -20.8968456677 60
-102.518713966 -21.0681312879 58
-104.185684925 -21.4107025284 56
-104.185684925 -21.4107025284 54
-106.686141363 -21.924559389 52
-106.686141363 -21.924559389 50
-107.519626842 -22.0958450093 48
-107.519626842 -22.0958450093 46
-107.519626842 -22.0958450093 44
-106.686141363 -21.924559389 42
-104.185684925 -21.4107025284 40
-102.518713966 -21.0681312879 38
-101.685228487 -20.8968456677 36
-101.685228487 -20.8968456677 34
129.553892224 28.9127786736 378
129.553892224 28.9127786736 376
129.553892224 28.9127786736 374
128.723418556 28.7274403488 356
128.723418556 28.7274403488 354
128.723418556 28.7274403488 352
128.723418556 28.7274403488 350
128.723418556 28.7274403488 348
125.401523884 27.9860870494 346
125.401523884 27.9860870494 344
125.401523884 27.9860870494 342
125.401523884 27.9860870494 340
125.401523884 27.9860870494 338
125.401523884 27.9860870494 336
125.401523884 27.9860870494 334
125.401523884 27.9860870494 332
125.401523884 27.9860870494 330
125.401523884 27.9860870494 328
125.401523884 27.9860870494 326
125.401523884 27.9860870494 324
125.401523884 27.9860870494 322
123.740576547 27.6154103998 314
123.740576547 27.6154103998 312
123.740576547 27.6154103998 310
123.740576547 27.6154103998 308
123.740576547 27.6154103998 306
123.740576547 27.6154103998 304
123.740576547 27.6154103998 302
123.740576547 27.6154103998 300
123.740576547 27.6154103998 298
123.740576547 27.6154103998 296
123.740576547 27.6154103998 294
121.249155543 27.0593954253 292
121.249155543 27.0593954253 290
120.418681875 26.8740571005 288
120.418681875 26.8740571005 286
120.418681875 26.8740571005 284
120.418681875 26.8740571005 282
120.418681875 26.8740571005 280
120.418681875 26.8740571005 278
120.418681875 26.8740571005 276
120.418681875 26.8740571005 274
120.418681875 26.8740571005 272
120.418681875 26.8740571005 270
120.418681875 26.8740571005 268
118.757734539 26.5033804508 266
118.757734539 26.5033804508 264
118.757734539 26.5033804508 262
117.927260871 26.318042126 260
117.927260871 26.318042126 258
117.927260871 26.318042126 256
117.927260871 26.318042126 254
117.927260871 26.318042126 252
117.096787203 26.1327038011 250
117.096787203 26.1327038011 248
117.096787203 26.1327038011 246
115.435839866 25.7620271515 244
115.435839866 25.7620271515 242
115.435839866 25.7620271515 240
115.435839866 25.7620271515 238
115.435839866 25.7620271515 236
113.77489253 25.3913505018 234
113.77489253 25.3913505018 232
113.77489253 25.3913505018 230
113.77489253 25.3913505018 228
113.77489253 25.3913505018 226
113.77489253 25.3913505018 224
113.77489253 25.3913505018 222
113.77489253 25.3913505018 220
112.944418862 25.206012177 218
112.944418862 25.206012177 216
112.944418862 25.206012177 214
5.81331567673 1.29736827382 192
4.98284200862 1.11202994898 190
0.830473668104 0.185338324831 188
2.49142100431 0.556014974492 186
3.32189467241 0.741353299323 184
2.49142100431 0.556014974492 182
-118.757734539 -26.5033804508 180
-119.588208207 -26.6887187756 178
-120.418681875 -26.8740571005 176
-120.418681875 -26.8740571005 174
-120.418681875 -26.8740571005 172
-122.079629211 -27.2447337501 170
-122.079629211 -27.2447337501 168
-122.079629211 -27.2447337501 166
-123.740576547 -27.6154103998 164
-123.740576547 -27.6154103998 162
-124.571050216 -27.8007487246 160
-124.571050216 -27.8007487246 158
-124.571050216 -27.8007487246 156
-125.401523884 -27.9860870494 154
-125.401523884 -27.9860870494 152
-125.401523884 -27.9860870494 150
-127.06247122 -28.3567636991 148
-127.06247122 -28.3567636991 146
-127.892944888 -28.5421020239 144
-127.892944888 -28.5421020239 142
-127.892944888 -28.5421020239 140
-127.892944888 -28.5421020239 138
-127.892944888 -28.5421020239 136
-127.892944888 -28.5421020239 134
-127.892944888 -28.5421020239 132
-127.892944888 -28.5421020239 130
-127.06247122 -28.3567636991 128
-127.06247122 -28.3567636991 126
-127.06247122 -28.3567636991 124
-127.06247122 -28.3567636991 122
-127.06247122 -28.3567636991 120
-127.06247122 -28.3567636991 118
-126.231997552 -28.1714253743 116
-126.231997552 -28.1714253743 114
-70.5902617888 -15.7537576106 90
-70.5902617888 -15.7537576106 88
-70.5902617888 -15.7537576106 86
-98.8263665043 -22.0552606549 74
-98.8263665043 -22.0552606549 72
-98.8263665043 -22.0552606549 70
-100.487313841 -22.4259373045 68
-100.487313841 -22.4259373045 66
-101.317787509 -22.6112756293 64
-101.317787509 -22.6112756293 62
-101.317787509 -22.6112756293 60
-102.148261177 -22.7966139542 58
-103.809208513 -23.1672906038 56
-103.809208513 -23.1672906038 54
-106.300629517 -23.7233055783 52
-107.131103185 -23.9086439032 50
-106.300629517 -23.7233055783 48
-106.300629517 -23.7233055783 46
-106.300629517 -23.7233055783 44
-104.639682181 -23.3526289287 42
-104.639682181 -23.3526289287 40
-104.639682181 -23.3526289287 38
-101.317787509 -22.6112756293 36
-101.317787509 -22.6112756293 34
129.047091191 31.0967525023 378
129.047091191 31.0967525023 376
129.047091191 31.0967525023 374
128.219866248 30.8974143452 362
128.219866248 30.8974143452 360
128.219866248 30.8974143452 358
128.219866248 30.8974143452 356
128.219866248 30.8974143452 354
128.219866248 30.8974143452 352
128.219866248 30.8974143452 350
128.219866248 30.8974143452 348
124.910966473 30.100061717 346
124.910966473 30.100061717 344
124.910966473 30.100061717 342
124.910966473 30.100061717 340
124.910966473 30.100061717 338
124.910966473 30.100061717 336
124.910966473 30.100061717 334
124.910966473 30.100061717 332
124.910966473 30.100061717 330
124.910966473 30.100061717 328
124.910966473 30.100061717 326
124.910966473 30.100061717 324
124.910966473 30.100061717 322
124.910966473 30.100061717 320
124.910966473 30.100061717 318
124.910966473 30.100061717 316
123.256516586 29.7013854028 314
123.256516586 29.7013854028 312
123.256516586 29.7013854028 310
123.256516586 29.7013854028 308
123.256516586 29.7013854028 306
123.256516586 29.7013854028 304
123.256516586 29.7013854028 302
123.256516586 29.7013854028 300
122.429291643 29.5020472458 298
122.429291643 29.5020472458 296
122.429291643 29.5020472458 294
120.774841756 29.1033709316 292
120.774841756 29.1033709316 290
119.947616812 28.9040327746 288
119.947616812 28.9040327746 286
119.947616812 28.9040327746 284
119.947616812 28.9040327746 282
119.947616812 28.9040327746 280
119.947616812 28.9040327746 278
119.947616812 28.9040327746 276
119.947616812 28.9040327746 274
119.947616812 28.9040327746 272
119.947616812 28.9040327746 270
119.947616812 28.9040327746 268
118.293166925 28.5053564604 266
118.293166925 28.5053564604 264
118.293166925 28.5053564604 262
117.465941982 28.3060183034 260
117.465941982 28.3060183034 258
117.465941982 28.3060183034 256
117.465941982 28.3060183034 254
117.465941982 28.3060183034 252
117.465941982 28.3060183034 250
117.465941982 28.3060183034 248
117.465941982 28.3060183034 246
114.984267151 27.7080038322 244
114.984267151 27.7080038322 242
114.984267151 27.7080038322 240
114.984267151 27.7080038322 238
114.984267151 27.7080038322 236
114.157042207 27.5086656751 234
114.157042207 27.5086656751 232
114.157042207 27.5086656751 230
113.329817264 27.309327518 228
113.329817264 27.309327518 226
113.329817264 27.309327518 224
113.329817264 27.309327518 222
113.329817264 27.309327518 220
112.50259232 27.109989361 218
112.50259232 27.109989361 216
112.50259232 27.109989361 214
-112.50259232 -27.109989361 192
-0.827224943532 -0.199338157066 190
3.30889977413 0.797352628264 188
3.30889977413 0.797352628264 186
4.96334966119 1.1960289424 184
4.13612471766 0.99669078533 182
-117.465941982 -28.3060183034 180
-117.465941982 -28.3060183034 178
-119.120391869 -28.7046946175 176
-119.120391869 -28.7046946175 174
-119.120391869 -28.7046946175 172
-121.602066699 -29.3027090887 170
-121.602066699 -29.3027090887 168
-121.602066699 -29.3027090887 166
-123.256516586 -29.7013854028 164
-123.256516586 -29.7013854028 162
-124.08374153 -29.9007235599 160
-124.08374153 -29.9007235599 158
-124.08374153 -29.9007235599 156
-124.910966473 -30.100061717 154
-124.910966473 -30.100061717 152
-124.910966473 -30.100061717 150
-126.56541636 -30.4987380311 148
-126.56541636 -30.4987380311 146
-127.392641304 -30.6980761882 144
-127.392641304 -30.6980761882 142
-127.392641304 -30.6980761882 140
-127.392641304 -30.6980761882 138
-127.392641304 -30.6980761882 136
-127.392641304 -30.6980761882 134
-126.56541636 -30.4987380311 132
-126.56541636 -30.4987380311 130
-127.392641304 -30.6980761882 128
-127.392641304 -30.6980761882 126
-127.392641304 -30.6980761882 124
-126.56541636 -30.4987380311 122
-126.56541636 -30.4987380311 120
-126.56541636 -30.4987380311 118
-126.56541636 -30.4987380311 116
-126.56541636 -30.4987380311 114
-69.4868952567 -16.7444051935 90
-69.4868952567 -16.7444051935 88
-69.4868952567 -16.7444051935 86
-98.4397682804 -23.7212406909 74
-98.4397682804 -23.7212406909 72
-99.2669932239 -23.9205788479 70
-100.094218167 -24.119917005 68
-100.094218167 -24.119917005 66
-100.921443111 -24.3192551621 64
-100.921443111 -24.3192551621 62
-100.921443111 -24.3192551621 60
-101.748668054 -24.5185933191 58
-103.403117942 -24.9172696333 56
-104.230342885 -25.1166077903 54
-105.884792772 -25.5152841044 52
-105.884792772 -25.5152841044 50
-105.884792772 -25.5152841044 48
-105.884792772 -25.5152841044 46
-105.884792772 -25.5152841044 44
-105.884792772 -25.5152841044 42
-102.575892998 -24.7179314762 40
-101.748668054 -24.5185933191 38
-100.921443111 -24.3192551621 36
-100.921443111 -24.3192551621 34
131.798437194 34.1249797012 404
131.798437194 34.1249797012 402
131.798437194 34.1249797012 388
131.798437194 34.1249797012 386
128.503476264 33.2718552086 378
128.503476264 33.2718552086 376
128.503476264 33.2718552086 374
127.679736032 33.0585740855 368
127.679736032 33.0585740855 366
127.679736032 33.0585740855 364
127.679736032 33.0585740855 362
127.679736032 33.0585740855 360
127.679736032 33.0585740855 358
127.679736032 33.0585740855 356
127.679736032 33.0585740855 354
127.679736032 33.0585740855 352
127.679736032 33.0585740855 350
127.679736032 33.0585740855 348
124.384775102 32.205449593 346
124.384775102 32.205449593 344
124.384775102 32.205449593 342
124.384775102 32.205449593 340
124.384775102 32.205449593 338
124.384775102 32.205449593 336
124.384775102 32.205449593 334
124.384775102 32.205449593 332
124.384775102 32.205449593 330
124.384775102 32.205449593 328
124.384775102 32.205449593 326
123.56103487 31.9921684699 324
123.56103487 31.9921684699 322
123.56103487 31.9921684699 320
123.56103487 31.9921684699 318
123.56103487 31.9921684699 316
122.737294637 31.7788873467 314
122.737294637 31.7788873467 312
122.737294637 31.7788873467 310
121.913554405 31.5656062236 308
121.913554405 31.5656062236 306
122.737294637 31.7788873467 304
122.737294637 31.7788873467 302
122.737294637 31.7788873467 300
121.913554405 31.5656062236 298
121.913554405 31.5656062236 296
121.913554405 31.5656062236 294
120.26607394 31.1390439773 292
120.26607394 31.1390439773 290
119.442333707 30.9257628542 288
119.442333707 30.9257628542 286
119.442333707 30.9257628542 284
119.442333707 30.9257628542 282
119.442333707 30.9257628542 280
119.442333707 30.9257628542 278
119.442333707 30.9257628542 276
119.442333707 30.9257628542 274
118.618593475 30.7124817311 272
118.618593475 30.7124817311 270
118.618593475 30.7124817311 268
117.794853242 30.4992006079 266
117.794853242 30.4992006079 264
117.794853242 30.4992006079 262
116.97111301 30.2859194848 260
116.97111301 30.2859194848 258
116.97111301 30.2859194848 256
116.97111301 30.2859194848 254
116.97111301 30.2859194848 252
116.147372777 30.0726383617 250
116.147372777 30.0726383617 248
116.147372777 30.0726383617 246
114.499892313 29.6460761154 244
114.499892313 29.6460761154 242
114.499892313 29.6460761154 240
114.499892313 29.6460761154 238
114.499892313 29.6460761154 236
113.67615208 29.4327949923 234
113.67615208 29.4327949923 232
113.67615208 29.4327949923 230
112.852411848 29.2195138691 228
112.852411848 29.2195138691 226
112.852411848 29.2195138691 224
112.852411848 29.2195138691 222
112.852411848 29.2195138691 220
112.028671615 29.006232746 218
112.028671615 29.006232746 216
112.028671615 29.006232746 214
111.204931383 28.7929516229 212
-96.3776071983 -24.9538914065 202
-103.79126929 -26.8734215147 198
2.47122069739 0.639843369397 192
1.64748046493 0.426562246265 190
4.94244139478 1.27968673879 188
4.94244139478 1.27968673879 186
4.94244139478 1.27968673879 184
7.41366209218 1.91953010819 182
-116.97111301 -30.2859194848 180
-117.794853242 -30.4992006079 178
-118.618593475 -30.7124817311 176
-118.618593475 -30.7124817311 174
-118.618593475 -30.7124817311 172
-120.26607394 -31.1390439773 170
-120.26607394 -31.1390439773 168
-120.26607394 -31.1390439773 166
-122.737294637 -31.7788873467 164
-122.737294637 -31.7788873467 162
-123.56103487 -31.9921684699 160
-123.56103487 -31.9921684699 158
-123.56103487 -31.9921684699 156
-124.384775102 -32.205449593 154
-124.384775102 -32.205449593 152
-124.384775102 -32.205449593 150
-126.032255567 -32.6320118392 148
-126.032255567 -32.6320118392 146
-125.208515335 -32.4187307161 144
-125.208515335 -32.4187307161 142
-125.208515335 -32.4187307161 140
-126.855995799 -32.8452929624 138
-126.855995799 -32.8452929624 136
-126.855995799 -32.8452929624 134
-126.032255567 -32.6320118392 132
-126.032255567 -32.6320118392 130
-125.208515335 -32.4187307161 128
-125.208515335 -32.4187307161 126
-125.208515335 -32.4187307161 124
-125.208515335 -32.4187307161 122
-125.208515335 -32.4187307161 120
-125.208515335 -32.4187307161 118
-125.208515335 -32.4187307161 116
-125.208515335 -32.4187307161 114
-68.3704392945 -17.70233322 92
-69.194179527 -17.9156143431 90
-69.194179527 -17.9156143431 88
-69.194179527 -17.9156143431 86
-96.3776071983 -24.9538914065 76
-98.0250876632 -25.3804536527 74
-98.0250876632 -25.3804536527 72
-98.0250876632 -25.3804536527 70
-100.496308361 -26.0202970221 68
-100.496308361 -26.0202970221 66
-100.496308361 -26.0202970221 64
-100.496308361 -26.0202970221 62
-100.496308361 -26.0202970221 60
-101.320048593 -26.2335781453 58
-102.967529058 -26.6601403915 56
-103.79126929 -26.8734215147 54
-104.615009523 -27.0867026378 52
-104.615009523 -27.0867026378 50
-105.438749755 -27.2999837609 48
-105.438749755 -27.2999837609 46
-105.438749755 -27.2999837609 44
-104.615009523 -27.0867026378 42
-102.967529058 -26.6601403915 40
-102.967529058 -26.6601403915 38
-100.496308361 -26.0202970221 36
-100.496308361 -26.0202970221 34
-33.773349531 -8.74452604843 4
-33.773349531 -8.74452604843 2
131.20328464 36.3461192723 404
131.20328464 36.3461192723 402
131.20328464 36.3461192723 388
131.20328464 36.3461192723 386
127.923202524 35.4374662905 378
127.923202524 35.4374662905 376
127.923202524 35.4374662905 374
127.103181995 35.210303045 368
127.103181995 35.210303045 366
127.103181995 35.210303045 364
127.103181995 35.210303045 362
127.103181995 35.210303045 360
127.103181995 35.210303045 358
127.103181995 35.210303045 356
127.103181995 35.210303045 354
127.103181995 35.210303045 352
127.103181995 35.210303045 350
127.103181995 35.210303045 348
123.823099879 34.3016500632 346
123.823099879 34.3016500632 344
123.823099879 34.3016500632 342
123.823099879 34.3016500632 340
123.823099879 34.3016500632 338
123.823099879 34.3016500632 336
123.823099879 34.3016500632 334
123.823099879 34.3016500632 332
123.823099879 34.3016500632 330
123.823099879 34.3016500632 328
123.823099879 34.3016500632 326
123.00307935 34.0744868178 324
123.00307935 34.0744868178 322
123.00307935 34.0744868178 320
123.00307935 34.0744868178 318
