0 0 0 
143.542676581 0.0 623
142.8355698 0.0 617
140.007142675 0.0 611
140.007142675 0.0 605
-412.243253432 -0.0 596
-411.536146651 -0.0 593
137.885822331 0.0 590
137.17871555 0.0 587
137.885822331 0.0 584
136.471608769 0.0 581
-436.284883992 -0.0 578
-436.991990773 -0.0 575
135.764501988 0.0 572
135.764501988 0.0 569
134.350288425 0.0 566
134.350288425 0.0 563
134.350288425 0.0 560
133.643181644 0.0 557
133.643181644 0.0 554
132.936074863 0.0 551
132.936074863 0.0 548
132.228968082 0.0 545
131.521861301 0.0 542
131.521861301 0.0 539
131.521861301 0.0 536
131.521861301 0.0 533
130.107647738 0.0 530
130.107647738 0.0 527
129.400540957 0.0 524
129.400540957 0.0 521
128.693434176 0.0 518
128.693434176 0.0 515
127.986327395 0.0 512
127.279220614 0.0 509
127.279220614 0.0 506
126.572113832 0.0 503
125.865007051 0.0 500
125.865007051 0.0 497
125.865007051 0.0 494
125.15790027 0.0 491
125.865007051 0.0 488
125.15790027 0.0 485
125.15790027 0.0 482
123.743686708 0.0 479
124.450793489 0.0 476
123.743686708 0.0 473
122.329473145 0.0 470
122.329473145 0.0 467
121.622366364 0.0 464
121.622366364 0.0 461
121.622366364 0.0 458
120.915259583 0.0 455
120.915259583 0.0 452
119.501046021 0.0 449
119.501046021 0.0 446
119.501046021 0.0 443
119.501046021 0.0 440
118.793939239 0.0 437
118.793939239 0.0 434
118.086832458 0.0 431
118.086832458 0.0 428
116.672618896 0.0 425
116.672618896 0.0 422
116.672618896 0.0 419
115.965512115 0.0 416
115.258405333 0.0 413
115.258405333 0.0 410
114.551298552 0.0 407
113.844191771 0.0 404
113.844191771 0.0 401
113.844191771 0.0 398
113.13708499 0.0 395
113.844191771 0.0 392
113.13708499 0.0 389
112.429978209 0.0 386
112.429978209 0.0 383
111.015764646 0.0 380
111.015764646 0.0 377
111.015764646 0.0 374
109.601551084 0.0 371
109.601551084 0.0 368
108.894444303 0.0 365
108.187337522 0.0 362
108.187337522 0.0 359
108.187337522 0.0 356
108.187337522 0.0 353
107.48023074 0.0 350
106.773123959 0.0 347
106.773123959 0.0 344
106.066017178 0.0 341
105.358910397 0.0 338
104.651803616 0.0 335
104.651803616 0.0 332
103.944696834 0.0 329
103.944696834 0.0 326
102.530483272 0.0 323
103.237590053 0.0 320
102.530483272 0.0 317
101.823376491 0.0 314
101.823376491 0.0 311
101.823376491 0.0 308
-31.1126983722 -0.0 305
-36.7695526217 -0.0 302
-40.3050865276 -0.0 299
-43.1335136524 -0.0 296
114.551298552 0.0 293
113.844191771 0.0 290
122.329473145 0.0 287
127.279220614 0.0 284
132.936074863 0.0 281
144.956890143 0.0 278
140.714249456 0.0 275
143.542676581 0.0 272
135.057395207 0.0 269
140.007142675 0.0 266
146.371103706 0.0 263
152.027957955 0.0 260
-89.0954544295 -0.0 257
-93.3380951166 -0.0 254
-97.5807358037 -0.0 251
-101.11626971 -0.0 248
-103.944696834 -0.0 245
-105.358910397 -0.0 242
-108.187337522 -0.0 239
-111.722871427 -0.0 236
-115.258405333 -0.0 233
-113.844191771 -0.0 230
-116.672618896 -0.0 227
-119.501046021 -0.0 224
-120.915259583 -0.0 221
-125.865007051 -0.0 218
-127.986327395 -0.0 215
-118.793939239 -0.0 212
-118.793939239 -0.0 209
-116.672618896 -0.0 206
-115.965512115 -0.0 203
-117.379725677 -0.0 200
-117.379725677 -0.0 197
-118.086832458 -0.0 194
-117.379725677 -0.0 191
-118.086832458 -0.0 188
-116.672618896 -0.0 185
-115.965512115 -0.0 182
-116.672618896 -0.0 179
-116.672618896 -0.0 176
-115.965512115 -0.0 173
-115.258405333 -0.0 170
-117.379725677 -0.0 167
-117.379725677 -0.0 164
-118.086832458 -0.0 161
-118.086832458 -0.0 158
-117.379725677 -0.0 155
-101.11626971 -0.0 146
-52.3259018078 -0.0 140
-45.2548339959 -0.0 137
-50.9116882454 -0.0 134
-45.9619407771 -0.0 131
-17.6776695297 -0.0 128
-45.2548339959 -0.0 125
-123.036579926 -0.0 122
-126.572113832 -0.0 116
-127.986327395 -0.0 113
-129.400540957 -0.0 110
-130.81475452 -0.0 107
-375.47370081 -0.0 104
-387.49451609 -0.0 101
-386.787409309 -0.0 98
-138.592929113 -0.0 86
-140.007142675 -0.0 83
-137.17871555 -0.0 80
-140.007142675 -0.0 77
-137.17871555 -0.0 74
-139.300035894 -0.0 71
-137.885822331 -0.0 68
-137.885822331 -0.0 65
-132.936074863 -0.0 62
-132.228968082 -0.0 59
-132.228968082 -0.0 56
-60.811183182 -0.0 41
-60.1040764009 -0.0 38
-54.4472221514 -0.0 35
-55.1543289326 -0.0 32
-53.7401153702 -0.0 29
-53.7401153702 -0.0 26
-176.776695297 -0.0 23
62.2253967444 0.0 20
62.2253967444 0.0 17
-24.0416305603 -0.0 14
-43.8406204336 -0.0 11
143.522202021 2.42436116726 626
142.8151961 2.41241850141 623
142.108190178 2.40047583556 617
141.401184257 2.38853316971 611
140.694178336 2.37659050386 602
139.987172414 2.36464783802 599
139.987172414 2.36464783802 596
-410.770440267 -6.93868885802 593
137.866154651 2.32881984047 587
137.866154651 2.32881984047 584
137.159148729 2.31687717462 581
-435.515647512 -7.35668216272 578
-435.515647512 -7.35668216272 575
135.745136887 2.29299184292 572
-436.929659354 -7.38056749441 569
135.038130965 2.28104917708 566
135.038130965 2.28104917708 563
135.038130965 2.28104917708 560
133.624119123 2.25716384538 557
133.624119123 2.25716384538 554
132.917113202 2.24522117953 551
132.917113202 2.24522117953 548
132.21010728 2.23327851368 545
131.503101359 2.22133584783 542
131.503101359 2.22133584783 539
131.503101359 2.22133584783 536
131.503101359 2.22133584783 533
130.089089516 2.19745051614 530
130.089089516 2.19745051614 527
130.089089516 2.19745051614 524
130.089089516 2.19745051614 521
129.382083595 2.18550785029 518
128.675077674 2.17356518444 515
127.968071753 2.16162251859 512
127.261065831 2.14967985274 509
127.261065831 2.14967985274 506
127.261065831 2.14967985274 503
125.847053989 2.12579452104 500
125.847053989 2.12579452104 497
125.847053989 2.12579452104 494
125.140048067 2.1138518552 491
125.140048067 2.1138518552 488
125.140048067 2.1138518552 485
125.140048067 2.1138518552 482
123.726036225 2.0899665235 479
124.433042146 2.10190918935 476
123.726036225 2.0899665235 473
123.019030304 2.07802385765 470
122.312024382 2.0660811918 467
121.605018461 2.05413852595 464
122.312024382 2.0660811918 461
120.89801254 2.0421958601 458
120.89801254 2.0421958601 455
120.89801254 2.0421958601 452
119.484000697 2.01831052841 449
119.484000697 2.01831052841 446
119.484000697 2.01831052841 443
119.484000697 2.01831052841 440
118.776994776 2.00636786256 437
118.776994776 2.00636786256 434
118.069988855 1.99442519671 431
118.069988855 1.99442519671 428
116.655977012 1.97053986501 425
116.655977012 1.97053986501 422
116.655977012 1.97053986501 419
115.948971091 1.95859719916 416
115.241965169 1.94665453332 413
114.534959248 1.93471186747 410
114.534959248 1.93471186747 407
113.827953327 1.92276920162 404
113.827953327 1.92276920162 401
113.827953327 1.92276920162 398
113.827953327 1.92276920162 395
113.827953327 1.92276920162 392
113.120947406 1.91082653577 389
112.413941484 1.89888386992 386
112.413941484 1.89888386992 383
111.706935563 1.88694120407 380
110.999929642 1.87499853822 377
110.999929642 1.87499853822 374
109.585917799 1.85111320653 371
109.585917799 1.85111320653 368
108.878911878 1.83917054068 365
108.171905957 1.82722787483 362
108.171905957 1.82722787483 359
108.171905957 1.82722787483 356
108.171905957 1.82722787483 353
107.464900035 1.81528520898 350
107.464900035 1.81528520898 347
106.757894114 1.80334254313 344
106.050888193 1.79139987728 341
106.050888193 1.79139987728 338
104.63687635 1.76751454559 335
104.63687635 1.76751454559 332
103.929870429 1.75557187974 329
103.222864508 1.74362921389 326
103.222864508 1.74362921389 323
102.515858586 1.73168654804 320
102.515858586 1.73168654804 317
101.808852665 1.71974388219 314
101.808852665 1.71974388219 311
101.808852665 1.71974388219 308
-31.1082605366 -0.525477297337 305
-36.0573019855 -0.609075958277 302
-40.2993375133 -0.680731953368 299
-42.4203552771 -0.716559950914 296
-45.2483789623 -0.764330614308 293
124.433042146 2.10190918935 290
121.605018461 2.05413852595 287
127.261065831 2.14967985274 284
133.624119123 2.25716384538 281
137.866154651 2.32881984047 278
140.694178336 2.37659050386 275
130.796095438 2.20939318198 272
136.452142808 2.30493450877 269
142.8151961 2.41241850141 266
150.592261234 2.54378782574 263
-67.8725684434 -1.14649592146 260
-83.4266987117 -1.40923457013 257
-92.6177756884 -1.56448922616 254
-98.2738230587 -1.66003055295 251
-100.394840823 -1.6958585505 248
-102.515858586 -1.73168654804 245
-104.63687635 -1.76751454559 242
-109.585917799 -1.85111320653 239
-110.292923721 -1.86305587238 236
-84.8407105542 -1.43311990183 233
-115.241965169 -1.94665453332 230
-115.948971091 -1.95859719916 227
-118.069988855 -1.99442519671 224
-122.312024382 -2.0660811918 221
-124.433042146 -2.10190918935 218
-128.675077674 -2.17356518444 215
-131.503101359 -2.22133584783 212
-118.776994776 -2.00636786256 209
-118.776994776 -2.00636786256 206
-118.776994776 -2.00636786256 203
-119.484000697 -2.01831052841 200
-119.484000697 -2.01831052841 197
-119.484000697 -2.01831052841 194
-118.776994776 -2.00636786256 191
-118.776994776 -2.00636786256 188
-118.069988855 -1.99442519671 185
-118.776994776 -2.00636786256 182
-117.362982933 -1.98248253086 179
-118.069988855 -1.99442519671 176
-117.362982933 -1.98248253086 173
-118.776994776 -2.00636786256 170
-118.069988855 -1.99442519671 167
-118.776994776 -2.00636786256 164
-118.776994776 -2.00636786256 161
-118.069988855 -1.99442519671 158
-118.069988855 -1.99442519671 155
-101.101846744 -1.70780121634 146
-53.7324500177 -0.907642604491 143
-52.3184381751 -0.883757272794 140
-43.8343671197 -0.740445282611 137
-50.1974204113 -0.847929275248 134
-19.796165796 -0.33439464376 131
-16.9681421108 -0.286623980366 128
-121.605018461 -2.05413852595 125
-123.019030304 -2.07802385765 122
-125.140048067 -2.1138518552 119
-126.55405991 -2.13773718689 116
-127.968071753 -2.16162251859 113
-129.382083595 -2.18550785029 110
-129.382083595 -2.18550785029 107
-130.089089516 -2.19745051614 104
-131.503101359 -2.22133584783 101
-132.917113202 -2.24522117953 98
-384.611221179 -6.49681022162 95
-135.038130965 -2.28104917708 89
-137.159148729 -2.31687717462 86
-139.280166493 -2.35270517217 83
-139.280166493 -2.35270517217 80
-139.280166493 -2.35270517217 77
-139.987172414 -2.36464783802 74
-138.573160572 -2.34076250632 71
-137.866154651 -2.32881984047 68
-131.503101359 -2.22133584783 62
-132.21010728 -2.23327851368 59
-132.21010728 -2.23327851368 56
-59.388497388 -1.00318393128 44
-60.0955033092 -1.01512659713 41
-58.6814914667 -0.991241265431 38
-54.439455939 -0.91958527034 35
-52.3184381751 -0.883757272794 32
-52.3184381751 -0.883757272794 29
-53.0254440964 -0.895699938642 26
62.9235269944 1.06289726052 20
62.2165210731 1.05095459467 17
-168.974415187 -2.85429713781 14
-43.8343671197 -0.740445282611 11
143.460784182 4.84803072518 626
143.460784182 4.84803072518 623
142.754080812 4.82414880042 617
140.6339707 4.75250302616 602
-413.421471657 -13.9709259814 596
-412.008064917 -13.9231621319 593
137.807157219 4.65697532714 587
137.807157219 4.65697532714 584
-436.035979509 -14.7351475736 578
-436.035979509 -14.7351475736 575
135.687047108 4.58532955287 572
-437.449386249 -14.7829114231 569
134.980343738 4.56144762812 566
134.980343738 4.56144762812 563
134.273640367 4.53756570337 560
133.566936997 4.51368377861 557
132.860233627 4.48980185386 554
132.860233627 4.48980185386 551
132.860233627 4.48980185386 548
132.153530256 4.4659199291 545
131.446826886 4.44203800435 542
131.446826886 4.44203800435 539
131.446826886 4.44203800435 536
131.446826886 4.44203800435 533
130.740123516 4.41815607959 530
130.033420145 4.39427415484 527
130.033420145 4.39427415484 524
130.033420145 4.39427415484 521
128.620013404 4.34651030533 518
128.620013404 4.34651030533 515
127.913310034 4.32262838057 512
127.206606664 4.29874645582 509
127.206606664 4.29874645582 506
125.793199923 4.25098260631 503
125.793199923 4.25098260631 500
125.793199923 4.25098260631 497
125.793199923 4.25098260631 494
125.086496553 4.22710068156 491
125.086496553 4.22710068156 488
125.086496553 4.22710068156 485
125.086496553 4.22710068156 482
123.673089812 4.17933683205 479
124.379793182 4.2032187568 476
123.673089812 4.17933683205 473
122.966386442 4.15545490729 470
122.259683071 4.13157298254 467
121.552979701 4.10769105778 464
122.259683071 4.13157298254 461
120.846276331 4.08380913303 458
120.846276331 4.08380913303 455
120.846276331 4.08380913303 452
119.43286959 4.03604528352 449
119.43286959 4.03604528352 446
119.43286959 4.03604528352 443
119.43286959 4.03604528352 440
118.72616622 4.01216335877 437
118.72616622 4.01216335877 434
118.019462849 3.98828143401 431
118.019462849 3.98828143401 428
116.606056108 3.9405175845 425
116.606056108 3.9405175845 422
116.606056108 3.9405175845 419
115.899352738 3.91663565975 416
115.192649368 3.89275373499 413
114.485945997 3.86887181024 410
114.485945997 3.86887181024 407
113.779242627 3.84498988548 404
113.779242627 3.84498988548 401
113.779242627 3.84498988548 398
113.072539257 3.82110796073 395
113.779242627 3.84498988548 392
113.072539257 3.82110796073 389
112.365835886 3.79722603597 386
111.659132516 3.77334411122 383
112.365835886 3.79722603597 380
110.952429146 3.74946218647 377
110.245725775 3.72558026171 374
109.539022405 3.70169833696 371
109.539022405 3.70169833696 368
108.832319035 3.6778164122 365
108.832319035 3.6778164122 362
108.125615664 3.65393448745 359
108.125615664 3.65393448745 356
108.125615664 3.65393448745 353
107.418912294 3.63005256269 350
107.418912294 3.63005256269 347
106.712208923 3.60617063794 344
106.005505553 3.58228871318 341
106.005505553 3.58228871318 338
104.592098812 3.53452486367 335
104.592098812 3.53452486367 332
103.885395442 3.51064293892 329
103.885395442 3.51064293892 326
103.178692072 3.48676101417 323
102.471988701 3.46287908941 320
102.471988701 3.46287908941 317
101.765285331 3.43899716466 314
101.765285331 3.43899716466 311
101.765285331 3.43899716466 308
-30.3882449252 -1.02692276445 305
-36.0418718881 -1.21797816248 302
-39.5753887398 -1.33738778626 299
-42.4022022213 -1.43291548527 296
-45.2290157027 -1.52844318429 293
115.899352738 3.91663565975 290
121.552979701 4.10769105778 287
127.913310034 4.32262838057 284
134.273640367 4.53756570337 281
137.807157219 4.65697532714 278
141.340674071 4.77638495091 275
133.566936997 4.51368377861 272
144.167487552 4.87191264993 269
146.994301034 4.96744034895 266
148.407707774 5.01520419846 263
-67.843523554 -2.29266477644 260
-80.5641842204 -2.72253942202 257
-92.5781415164 -3.12853214285 254
-96.8183617385 -3.27182369137 251
-101.058581961 -3.4151152399 248
-103.885395442 -3.51064293892 245
-105.298802183 -3.55840678843 242
-109.539022405 -3.70169833696 239
-111.659132516 -3.77334411122 236
-113.779242627 -3.84498988548 233
-117.312759479 -3.96439950926 230
-116.606056108 -3.9405175845 227
-118.019462849 -3.98828143401 224
-121.552979701 -4.10769105778 221
-125.086496553 -4.22710068156 218
-127.913310034 -4.32262838057 215
-130.740123516 -4.41815607959 212
-120.846276331 -4.08380913303 209
-120.13957296 -4.05992720827 206
-120.846276331 -4.08380913303 203
-120.846276331 -4.08380913303 200
-120.846276331 -4.08380913303 197
-120.846276331 -4.08380913303 194
-120.846276331 -4.08380913303 191
-120.846276331 -4.08380913303 188
-119.43286959 -4.03604528352 185
-120.13957296 -4.05992720827 182
-118.72616622 -4.01216335877 179
-119.43286959 -4.03604528352 176
-119.43286959 -4.03604528352 173
-120.13957296 -4.05992720827 170
-119.43286959 -4.03604528352 167
-120.13957296 -4.05992720827 164
-119.43286959 -4.03604528352 161
-119.43286959 -4.03604528352 158
-119.43286959 -4.03604528352 155
-101.058581961 -3.4151152399 146
-53.7094561469 -1.81502628135 143
-53.7094561469 -1.81502628135 140
-43.815608962 -1.48067933478 137
-48.0558291841 -1.62397088331 134
-45.935719073 -1.55232510905 131
-15.5474741478 -0.5254023446 128
-120.846276331 -4.08380913303 125
-122.966386442 -4.15545490729 122
-125.086496553 -4.22710068156 119
-126.499903293 -4.27486453107 116
-127.913310034 -4.32262838057 113
-129.326716775 -4.37039223008 110
-129.326716775 -4.37039223008 107
-129.326716775 -4.37039223008 104
-130.740123516 -4.41815607959 101
-130.740123516 -4.41815607959 98
-131.446826886 -4.44203800435 95
-132.860233627 -4.48980185386 92
-134.273640367 -4.53756570337 89
-136.393750478 -4.60921147763 86
-139.22056396 -4.70473917665 83
-138.513860589 -4.68085725189 80
-139.22056396 -4.70473917665 77
-139.22056396 -4.70473917665 74
-138.513860589 -4.68085725189 71
-137.807157219 -4.65697532714 68
-137.807157219 -4.65697532714 65
-131.446826886 -4.44203800435 62
-131.446826886 -4.44203800435 59
-132.153530256 -4.4659199291 56
-58.6563797394 -1.98219975463 44
-60.0697864801 -2.02996360414 41
-58.6563797394 -1.98219975463 38
-53.7094561469 -1.81502628135 35
-53.0027527766 -1.79114435659 32
-54.4161595173 -1.8389082061 29
-53.7094561469 -1.81502628135 26
62.8965999615 2.12549130316 20
62.1898965912 2.1016093784 17
63.6033033319 2.14937322791 14
-43.815608962 -1.48067933478 11
