-200.188436335 48.23983401 399
-201.015661278 48.439172167 396
-200.188436335 48.23983401 393
-198.533986448 47.8411576958 390
-199.361211391 48.0404958529 387
-198.533986448 47.8411576958 384
-197.706761504 47.6418195388 381
-197.706761504 47.6418195388 378
-197.706761504 47.6418195388 375
-196.879536561 47.4424813817 372
-196.879536561 47.4424813817 369
-195.225086674 47.0438050676 366
-195.225086674 47.0438050676 363
-196.052311617 47.2431432246 360
-194.39786173 46.8444669105 357
-193.570636787 46.6451287534 354
-193.570636787 46.6451287534 351
-193.570636787 46.6451287534 348
-192.743411843 46.4457905964 345
-192.743411843 46.4457905964 342
-192.743411843 46.4457905964 339
-191.9161869 46.2464524393 336
-190.261737012 45.8477761252 333
-190.261737012 45.8477761252 330
-190.261737012 45.8477761252 327
-190.261737012 45.8477761252 324
-188.607287125 45.449099811 321
-188.607287125 45.449099811 318
-187.780062182 45.249761654 315
-187.780062182 45.249761654 312
182.816712521 -44.0537327116 291
186.125612295 -44.8510853399 288
189.434512069 -45.6484379681 285
191.088961956 -46.0471142822 282
193.570636787 -46.6451287534 279
196.052311617 -47.2431432246 276
198.533986448 -47.8411576958 273
200.188436335 -48.23983401 270
201.842886222 -48.6385103241 267
204.324561052 -49.2365247953 264
205.151785996 -49.4358629524 261
206.806235883 -49.8345392665 258
208.46068577 -50.2332155806 255
209.287910714 -50.4325537377 252
210.115135657 -50.6318918948 249
211.769585544 -51.0305682089 246
212.596810488 -51.229906366 243
213.424035431 -51.429244523 240
214.251260375 -51.6285826801 237
215.078485318 -51.8279208372 234
215.905710262 -52.0272589942 231
215.905710262 -52.0272589942 228
216.732935205 -52.2265971513 225
216.732935205 -52.2265971513 222
217.560160149 -52.4259353084 219
219.214610036 -52.8246116225 216
219.214610036 -52.8246116225 213
219.214610036 -52.8246116225 210
219.214610036 -52.8246116225 207
220.04183498 -53.0239497796 204
220.869059923 -53.2232879366 201
221.696284867 -53.4226260937 198
220.04183498 -53.0239497796 195
220.869059923 -53.2232879366 192
220.04183498 -53.0239497796 189
220.04183498 -53.0239497796 186
220.04183498 -53.0239497796 183
219.214610036 -52.8246116225 180
219.214610036 -52.8246116225 177
219.214610036 -52.8246116225 174
219.214610036 -52.8246116225 171
218.387385093 -52.6252734654 168
218.387385093 -52.6252734654 165
218.387385093 -52.6252734654 162
218.387385093 -52.6252734654 159
217.560160149 -52.4259353084 156
217.560160149 -52.4259353084 153
124.910966473 -30.100061717 117
124.910966473 -30.100061717 114
123.256516586 -29.7013854028 111
121.602066699 -29.3027090887 108
162.963313876 -39.269616942 99
164.617763763 -39.6682932561 96
165.444988706 -39.8676314132 93
165.444988706 -39.8676314132 90
167.099438594 -40.2663077273 87
168.753888481 -40.6649840415 84
168.753888481 -40.6649840415 81
169.581113424 -40.8643221985 78
169.581113424 -40.8643221985 75
162.963313876 -39.269616942 72
162.136088932 -39.0702787849 69
162.136088932 -39.0702787849 66
162.136088932 -39.0702787849 63
162.136088932 -39.0702787849 60
160.481639045 -38.6716024708 57
157.172739271 -37.8742498425 54
157.172739271 -37.8742498425 51
156.345514328 -37.6749116855 48
158.827189158 -38.2729261567 45
67.0052204261 -16.1463907223 30
67.0052204261 -16.1463907223 27
67.0052204261 -16.1463907223 24
67.0052204261 -16.1463907223 21
67.0052204261 -16.1463907223 18
40.5340222331 -9.76756969623 12
48.8062716684 -11.7609512669 9
53.7696213296 -12.9569802093 6
54.5968462731 -13.1563183664 3
-217.584101043 48.5586411056 519
-214.262206371 47.8172878063 492
-213.431732703 47.6319494815 480
-211.770785366 47.2612728318 474
-211.770785366 47.2612728318 471
-210.940311698 47.075934507 468
-211.770785366 47.2612728318 462
-210.10983803 46.8905961822 456
-209.279364362 46.7052578573 447
-207.618417026 46.3345812077 441
-205.95746969 45.963904558 432
-205.126996022 45.7785662332 423
-204.296522353 45.5932279084 420
-204.296522353 45.5932279084 417
-202.635575017 45.2225512587 411
-202.635575017 45.2225512587 408
-201.805101349 45.0372129339 405
-201.805101349 45.0372129339 402
-200.974627681 44.851874609 399
-201.805101349 45.0372129339 396
-200.974627681 44.851874609 393
-200.144154013 44.6665362842 390
-200.144154013 44.6665362842 387
-200.144154013 44.6665362842 384
-198.483206677 44.2958596345 381
-198.483206677 44.2958596345 375
-198.483206677 44.2958596345 372
-198.483206677 44.2958596345 369
-195.991785672 43.73984466 366
-196.822259341 43.9251829849 363
-196.822259341 43.9251829849 360
-195.161312004 43.5545063352 357
-194.330838336 43.3691680104 354
-194.330838336 43.3691680104 351
-193.500364668 43.1838296856 348
-193.500364668 43.1838296856 345
-193.500364668 43.1838296856 342
-193.500364668 43.1838296856 339
-192.669891 42.9984913607 336
-191.839417332 42.8131530359 333
-190.178469996 42.4424763862 330
-191.008943664 42.6278147111 327
-191.008943664 42.6278147111 324
-189.347996328 42.2571380614 321
-189.347996328 42.2571380614 318
-188.51752266 42.0717997366 315
-188.51752266 42.0717997366 312
191.008943664 -42.6278147111 282
196.822259341 -43.9251829849 276
197.652733009 -44.1105213097 273
200.144154013 -44.6665362842 270
202.635575017 -45.2225512587 267
204.296522353 -45.5932279084 264
205.126996022 -45.7785662332 261
205.95746969 -45.963904558 258
207.618417026 -46.3345812077 255
209.279364362 -46.7052578573 252
210.940311698 -47.075934507 249
211.770785366 -47.2612728318 246
212.601259035 -47.4466111567 243
213.431732703 -47.6319494815 240
213.431732703 -47.6319494815 237
214.262206371 -47.8172878063 234
215.923153707 -48.187964456 231
216.753627375 -48.3733027808 228
215.923153707 -48.187964456 225
217.584101043 -48.5586411056 222
218.414574711 -48.7439794305 219
218.414574711 -48.7439794305 216
220.075522047 -49.1146560801 213
220.075522047 -49.1146560801 210
220.075522047 -49.1146560801 207
220.905995716 -49.299994405 204
220.905995716 -49.299994405 201
220.905995716 -49.299994405 198
220.075522047 -49.1146560801 195
220.905995716 -49.299994405 192
220.075522047 -49.1146560801 189
219.245048379 -48.9293177553 186
220.075522047 -49.1146560801 183
219.245048379 -48.9293177553 180
219.245048379 -48.9293177553 177
219.245048379 -48.9293177553 174
218.414574711 -48.7439794305 171
218.414574711 -48.7439794305 168
218.414574711 -48.7439794305 165
218.414574711 -48.7439794305 162
217.584101043 -48.5586411056 159
216.753627375 -48.3733027808 156
123.740576547 -27.6154103998 117
122.910102879 -27.4300720749 114
121.249155543 -27.0593954253 111
120.418681875 -26.8740571005 108
165.264259953 -36.8823266413 96
165.264259953 -36.8823266413 93
166.925207289 -37.253003291 90
168.586154625 -37.6236799406 87
169.416628293 -37.8090182655 84
169.416628293 -37.8090182655 81
169.416628293 -37.8090182655 78
169.416628293 -37.8090182655 75
170.247101961 -37.9943565903 72
169.416628293 -37.8090182655 69
169.416628293 -37.8090182655 66
170.247101961 -37.9943565903 63
168.586154625 -37.6236799406 60
167.755680957 -37.4383416158 57
159.450944276 -35.5849583675 54
158.620470608 -35.3996200427 51
159.450944276 -35.5849583675 48
160.281417944 -35.7702966923 45
65.6074197802 -14.6417276616 30
65.6074197802 -14.6417276616 27
66.4378934483 -14.8270659865 24
65.6074197802 -14.6417276616 21
66.4378934483 -14.8270659865 18
40.6932097371 -9.08157791671 12
40.6932097371 -9.08157791671 9
53.9807884267 -12.046991114 6
53.9807884267 -12.046991114 3
-218.373195602 44.8768324995 519
-215.039253685 44.1916900186 492
-213.372282726 43.8491187781 480
-211.705311767 43.5065475376 474
-211.705311767 43.5065475376 468
-211.705311767 43.5065475376 462
-210.871826288 43.3352619174 456
-209.204855329 42.992690677 447
-208.37136985 42.8214050567 441
-206.704398891 42.4788338163 432
-205.870913411 42.3075481961 423
-205.870913411 42.3075481961 420
-202.536971494 41.6224057151 411
-202.536971494 41.6224057151 408
-202.536971494 41.6224057151 405
-202.536971494 41.6224057151 402
-202.536971494 41.6224057151 399
-202.536971494 41.6224057151 396
-201.703486014 41.4511200949 393
-200.870000535 41.2798344747 390
-200.870000535 41.2798344747 387
-200.036515056 41.1085488545 384
-199.203029576 40.9372632342 381
-198.369544097 40.765977614 378
-199.203029576 40.9372632342 375
-199.203029576 40.9372632342 372
-198.369544097 40.765977614 369
-196.702573138 40.4234063736 366
-195.869087659 40.2521207533 363
-197.536058617 40.5946919938 360
-195.869087659 40.2521207533 357
-195.035602179 40.0808351331 354
-195.035602179 40.0808351331 351
-195.035602179 40.0808351331 348
-194.2021167 39.9095495129 345
-194.2021167 39.9095495129 342
-194.2021167 39.9095495129 339
-193.36863122 39.7382638927 336
-191.701660262 39.3956926522 333
-191.701660262 39.3956926522 330
-191.701660262 39.3956926522 327
-191.701660262 39.3956926522 324
-190.034689303 39.0531214117 321
-190.034689303 39.0531214117 318
-189.201203823 38.8818357915 315
-189.201203823 38.8818357915 312
191.701660262 -39.3956926522 282
194.2021167 -39.9095495129 279
196.702573138 -40.4234063736 276
198.369544097 -40.765977614 273
200.036515056 -41.1085488545 270
201.703486014 -41.4511200949 267
205.037427932 -42.1362625758 264
205.870913411 -42.3075481961 261
206.704398891 -42.4788338163 258
208.37136985 -42.8214050567 255
210.038340808 -43.1639762972 252
211.705311767 -43.5065475376 249
212.538797247 -43.6778331579 246
213.372282726 -43.8491187781 243
213.372282726 -43.8491187781 240
214.205768205 -44.0204043983 237
215.872739164 -44.3629756388 234
216.706224644 -44.534261259 231
216.706224644 -44.534261259 228
217.539710123 -44.7055468792 225
217.539710123 -44.7055468792 222
218.373195602 -44.8768324995 219
219.206681082 -45.0481181197 216
219.206681082 -45.0481181197 213
220.040166561 -45.2194037399 210
220.873652041 -45.3906893601 207
221.70713752 -45.5619749804 204
221.70713752 -45.5619749804 201
221.70713752 -45.5619749804 198
221.70713752 -45.5619749804 195
220.873652041 -45.3906893601 192
220.873652041 -45.3906893601 189
220.040166561 -45.2194037399 186
220.040166561 -45.2194037399 183
220.040166561 -45.2194037399 180
220.040166561 -45.2194037399 177
220.040166561 -45.2194037399 174
219.206681082 -45.0481181197 171
219.206681082 -45.0481181197 168
218.373195602 -44.8768324995 165
218.373195602 -44.8768324995 162
217.539710123 -44.7055468792 159
217.539710123 -44.7055468792 156
123.355850951 -25.3502717936 117
122.522365472 -25.1789861734 114
120.855394513 -24.8364149329 111
120.021909033 -24.6651293127 108
170.031037797 -34.9422665263 75
170.031037797 -34.9422665263 72
170.864523277 -35.1135521465 69
170.864523277 -35.1135521465 66
170.864523277 -35.1135521465 63
170.031037797 -34.9422665263 60
168.364066838 -34.5996952858 57
160.029212045 -32.8868390836 54
159.195726565 -32.7155534633 51
160.029212045 -32.8868390836 48
160.862697524 -33.0581247038 45
65.8453528725 -13.5315639979 27
66.6788383519 -13.7028496182 24
65.8453528725 -13.5315639979 21
65.8453528725 -13.5315639979 18
40.8407884905 -8.39299539112 12
48.3421578051 -9.93456597316 9
54.1765561609 -11.1335653148 6
55.8435271197 -11.4761365552 3
-219.099993774 41.1822216602 519
-215.754955701 40.5534854517 486
-212.409917629 39.9247492431 474
-213.246177147 40.0819332953 471
-213.246177147 40.0819332953 462
-212.409917629 39.9247492431 456
-210.737398592 39.6103811389 453
-210.737398592 39.6103811389 450
-208.228620037 39.1388289824 441
-207.392360519 38.9816449303 432
-206.556101001 38.8244608782 423
-206.556101001 38.8244608782 420
-204.047322446 38.3529087217 411
-204.047322446 38.3529087217 408
-203.211062928 38.1957246696 405
-203.211062928 38.1957246696 402
-203.211062928 38.1957246696 399
-203.211062928 38.1957246696 396
-202.37480341 38.0385406175 393
-201.538543892 37.8813565653 390
-201.538543892 37.8813565653 387
-200.702284373 37.7241725132 384
-200.702284373 37.7241725132 381
-199.029765337 37.4098044089 378
-199.866024855 37.5669884611 375
-199.866024855 37.5669884611 372
-199.029765337 37.4098044089 369
-198.193505819 37.2526203568 366
-198.193505819 37.2526203568 363
-197.357246301 37.0954363046 360
-195.684727264 36.7810682004 357
-195.684727264 36.7810682004 354
-195.684727264 36.7810682004 351
-195.684727264 36.7810682004 348
-194.848467746 36.6238841482 345
-194.848467746 36.6238841482 342
-194.848467746 36.6238841482 339
-194.012208228 36.4667000961 336
-193.175948709 36.3095160439 333
-191.503429673 35.9951479397 330
-192.339689191 36.1523319918 327
-192.339689191 36.1523319918 324
-190.667170155 35.8379638875 321
-190.667170155 35.8379638875 318
-189.830910637 35.6807798354 315
-189.830910637 35.6807798354 312
190.667170155 -35.8379638875 282
193.175948709 -36.3095160439 279
195.684727264 -36.7810682004 276
198.193505819 -37.2526203568 273
200.702284373 -37.7241725132 270
202.37480341 -38.0385406175 267
204.047322446 -38.3529087217 264
206.556101001 -38.8244608782 261
206.556101001 -38.8244608782 258
207.392360519 -38.9816449303 255
209.064879556 -39.2960130346 252
210.737398592 -39.6103811389 249
212.409917629 -39.9247492431 246
213.246177147 -40.0819332953 243
214.082436665 -40.2391173474 240
214.918696183 -40.3963013995 237
214.918696183 -40.3963013995 234
216.59121522 -40.7106695038 231
217.427474738 -40.867853556 228
217.427474738 -40.867853556 225
218.263734256 -41.0250376081 222
218.263734256 -41.0250376081 219
218.263734256 -41.0250376081 216
219.936253293 -41.3394057124 213
219.936253293 -41.3394057124 210
220.772512811 -41.4965897645 207
221.608772329 -41.6537738167 204
221.608772329 -41.6537738167 201
220.772512811 -41.4965897645 198
220.772512811 -41.4965897645 195
221.608772329 -41.6537738167 192
220.772512811 -41.4965897645 189
220.772512811 -41.4965897645 186
219.936253293 -41.3394057124 183
219.936253293 -41.3394057124 180
219.936253293 -41.3394057124 177
219.099993774 -41.1822216602 174
219.099993774 -41.1822216602 171
218.263734256 -41.0250376081 168
219.099993774 -41.1822216602 165
218.263734256 -41.0250376081 162
217.427474738 -40.867853556 159
217.427474738 -40.867853556 156
120.421370624 -22.6345035079 117
120.421370624 -22.6345035079 114
119.585111106 -22.4773194558 111
117.076332551 -22.0057672994 108
117.076332551 -22.0057672994 105
160.561827499 -30.1793380106 96
168.924422681 -31.7511785319 75
171.433201236 -32.2227306884 72
170.596941717 -32.0655466362 69
171.433201236 -32.2227306884 66
170.596941717 -32.0655466362 63
169.760682199 -31.9083625841 60
168.924422681 -31.7511785319 57
168.088163163 -31.5939944798 54
160.561827499 -30.1793380106 51
161.398087017 -30.3365220627 48
161.398087017 -30.3365220627 45
66.0645019396 -12.4175401189 24
66.0645019396 -12.4175401189 21
66.9007614578 -12.5747241711 18
51.8480901298 -9.74541123258 12
40.9767163929 -7.70201855478 9
54.3568686845 -10.216963389 6
55.1931282027 -10.3741474411 3
-219.764288222 37.4758625677 519
-214.731518262 36.6176367073 480
-213.053928276 36.3315614205 474
-213.053928276 36.3315614205 471
-213.053928276 36.3315614205 462
-212.215133283 36.1885237772 456
-212.215133283 36.1885237772 453
-209.698748303 35.759410847 441
-211.37633829 36.0454861338 438
-208.021158317 35.4733355602 432
-207.182363324 35.3302979168 423
-207.182363324 35.3302979168 420
-203.827183351 34.7581473433 411
-203.827183351 34.7581473433 408
-203.827183351 34.7581473433 405
-203.827183351 34.7581473433 402
-203.827183351 34.7581473433 399
-203.827183351 34.7581473433 396
-202.988388357 34.6151096999 393
-202.149593364 34.4720720565 390
-202.149593364 34.4720720565 387
-202.149593364 34.4720720565 384
-200.472003378 34.1859967697 381
-199.633208385 34.0429591263 378
-200.472003378 34.1859967697 375
-200.472003378 34.1859967697 372
-198.794413391 33.899921483 369
-197.955618398 33.7568838396 366
-197.116823405 33.6138461962 363
-197.955618398 33.7568838396 360
-197.116823405 33.6138461962 357
-196.278028412 33.4708085528 354
-196.278028412 33.4708085528 351
-196.278028412 33.4708085528 348
-195.439233419 33.3277709094 345
-195.439233419 33.3277709094 342
-195.439233419 33.3277709094 339
-194.600438425 33.184733266 336
-192.922848439 32.8986579792 333
-192.922848439 32.8986579792 330
-193.761643432 33.0416956226 327
-192.922848439 32.8986579792 324
-191.245258452 32.6125826925 321
-191.245258452 32.6125826925 318
-190.406463459 32.4695450491 315
-189.567668466 32.3265074057 312
192.084053446 -32.7556203358 279
195.439233419 -33.3277709094 276
197.116823405 -33.6138461962 273
199.633208385 -34.0429591263 270
201.310798371 -34.3290344131 267
202.988388357 -34.6151096999 264
204.665978344 -34.9011849867 261
207.182363324 -35.3302979168 258
207.182363324 -35.3302979168 255
208.85995331 -35.6163732036 252
210.537543296 -35.9024484904 249
212.215133283 -36.1885237772 246
213.053928276 -36.3315614205 243
213.892723269 -36.4745990639 240
214.731518262 -36.6176367073 237
215.570313256 -36.7606743507 234
215.570313256 -36.7606743507 231
217.247903242 -37.0467496375 228
217.247903242 -37.0467496375 225
218.925493228 -37.3328249243 222
218.925493228 -37.3328249243 219
218.925493228 -37.3328249243 216
219.764288222 -37.4758625677 213
219.764288222 -37.4758625677 210
221.441878208 -37.7619378544 207
220.603083215 -37.618900211 204
221.441878208 -37.7619378544 201
221.441878208 -37.7619378544 198
220.603083215 -37.618900211 195
221.441878208 -37.7619378544 192
220.603083215 -37.618900211 189
220.603083215 -37.618900211 186
219.764288222 -37.4758625677 183
219.764288222 -37.4758625677 180
219.764288222 -37.4758625677 177
218.925493228 -37.3328249243 174
218.925493228 -37.3328249243 171
218.086698235 -37.1897872809 168
218.086698235 -37.1897872809 165
218.086698235 -37.1897872809 162
216.409108249 -36.9037119941 159
216.409108249 -36.9037119941 156
118.270094043 -20.1683077177 117
118.270094043 -20.1683077177 114
116.592504057 -19.8822324309 111
115.753709063 -19.7391947875 108
159.37104871 -27.1771522437 99
160.209843704 -27.3201898871 96
160.209843704 -27.3201898871 93
161.048638697 -27.4632275305 90
161.048638697 -27.4632275305 87
162.726228683 -27.7493028173 84
162.726228683 -27.7493028173 81
164.40381867 -28.035378104 78
167.758998643 -28.6075286776 75
170.275383622 -29.0366416078 72
171.114178615 -29.1796792511 69
171.114178615 -29.1796792511 66
171.114178615 -29.1796792511 63
170.275383622 -29.0366416078 60
168.597793636 -28.750566321 57
168.597793636 -28.750566321 54
161.048638697 -27.4632275305 51
161.88743369 -27.6062651739 48
161.88743369 -27.6062651739 45
65.4260094706 -11.1569361843 24
65.4260094706 -11.1569361843 21
233.185008113 -39.7644648619 15
51.166494586 -8.72529624667 12
41.1009546674 -7.00884452601 9
54.5216745588 -9.29744682022 6
55.360469552 -9.44048446361 3
-220.365889438 33.7588125528 519
-217.842615895 33.3722612641 492
-216.160433533 33.1145604049 480
-215.319342352 32.9857099753 474
-214.478251171 32.8568595457 471
-214.478251171 32.8568595457 462
-212.796068808 32.5991586865 456
-212.796068808 32.5991586865 453
-211.113886446 32.3414578273 447
-210.272795265 32.2126073978 441
-208.590612903 31.9549065386 432
-207.749521722 31.826056109 423
-206.908430541 31.6972056794 420
-206.908430541 31.6972056794 417
-206.06733936 31.5683552498 411
-205.226248179 31.4395048202 408
-204.385156998 31.3106543906 405
-204.385156998 31.3106543906 402
-204.385156998 31.3106543906 399
-204.385156998 31.3106543906 396
-203.544065817 31.181803961 393
-202.702974636 31.0529535314 390
-202.702974636 31.0529535314 387
-201.861883455 30.9241031018 384
-201.020792274 30.7952526723 381
-200.179701093 30.6664022427 378
-201.020792274 30.7952526723 375
-201.020792274 30.7952526723 372
-201.020792274 30.7952526723 369
-198.49751873 30.4087013835 366
-198.49751873 30.4087013835 363
-199.338609911 30.5375518131 360
-196.815336368 30.1510005243 357
-196.815336368 30.1510005243 354
-196.815336368 30.1510005243 351
-196.815336368 30.1510005243 348
-195.974245187 30.0221500947 345
-195.974245187 30.0221500947 342
-195.974245187 30.0221500947 339
-195.133154006 29.8932996651 336
-193.450971644 29.6355988059 333
-193.450971644 29.6355988059 330
-194.292062825 29.7644492355 327
-193.450971644 29.6355988059 324
-191.768789282 29.3778979468 321
-191.768789282 29.3778979468 318
-190.927698101 29.2490475172 315
-190.08660692 29.1201970876 312
156.442959677 -23.9661799039 306
194.292062825 -29.7644492355 276
196.815336368 -30.1510005243 273
199.338609911 -30.5375518131 270
201.020792274 -30.7952526723 267
202.702974636 -31.0529535314 264
205.226248179 -31.4395048202 261
206.908430541 -31.6972056794 258
207.749521722 -31.826056109 255
208.590612903 -31.9549065386 252
209.431704084 -32.0837569682 249
211.113886446 -32.3414578273 246
213.63715999 -32.7280091161 243
214.478251171 -32.8568595457 240
214.478251171 -32.8568595457 237
215.319342352 -32.9857099753 234
216.160433533 -33.1145604049 231
217.001524714 -33.2434108345 228
218.683707076 -33.5011116937 225
217.842615895 -33.3722612641 222
219.524798257 -33.6299621233 219
219.524798257 -33.6299621233 216
219.524798257 -33.6299621233 213
220.365889438 -33.7588125528 210
221.206980619 -33.8876629824 207
221.206980619 -33.8876629824 204
221.206980619 -33.8876629824 201
222.0480718 -34.016513412 198
221.206980619 -33.8876629824 195
220.365889438 -33.7588125528 192
220.365889438 -33.7588125528 189
220.365889438 -33.7588125528 186
220.365889438 -33.7588125528 183
220.365889438 -33.7588125528 180
219.524798257 -33.6299621233 177
219.524798257 -33.6299621233 174
219.524798257 -33.6299621233 171
218.683707076 -33.5011116937 165
217.001524714 -33.2434108345 162
217.001524714 -33.2434108345 159
217.001524714 -33.2434108345 156
117.752765349 -18.0390601427 117
116.911674167 -17.9102097132 114
116.070582986 -17.7813592836 111
115.229491805 -17.652508854 108
159.807324402 -24.4815816223 99
160.648415583 -24.6104320519 96
160.648415583 -24.6104320519 93
161.489506764 -24.7392824815 90
161.489506764 -24.7392824815 87
163.171689126 -24.9969833407 84
163.171689126 -24.9969833407 81
164.853871488 -25.2546841998 78
168.218236212 -25.7700859182 75
170.741509755 -26.156637207 72
170.741509755 -26.156637207 69
171.582600936 -26.2854876366 66
171.582600936 -26.2854876366 63
170.741509755 -26.156637207 60
169.900418574 -26.0277867774 57
169.059327393 -25.8989363478 54
161.489506764 -24.7392824815 51
160.648415583 -24.6104320519 48
161.489506764 -24.7392824815 45
64.7640209417 -9.92148307851 24
65.6051121228 -10.0503335081 21
237.187713059 -36.3358211447 18
234.664439516 -35.9492698559 15
52.1476532258 -7.98872663464 12
51.3065620447 -7.85987620505 9
54.670926769 -8.37527792342 6
56.3531091311 -8.6329787826 3
-223.434068082 30.3760113708 531
-220.904625802 30.0321319968 519
-218.375183521 29.6882526228 492
-215.002593814 29.2297467908 480
-215.002593814 29.2297467908 474
-214.159446388 29.1151203328 471
-214.159446388 29.1151203328 462
-213.316298961 29.0004938748 456
-212.473151534 28.8858674168 453
-211.630004108 28.7712409588 447
-209.100561827 28.4273615848 432
-208.257414401 28.3127351268 423
-207.414266974 28.1981086688 420
-205.727972121 27.9688557528 411
-204.884824694 27.8542292948 408
-204.884824694 27.8542292948 405
-205.727972121 27.9688557528 402
-204.884824694 27.8542292948 399
-204.884824694 27.8542292948 396
-204.041677267 27.7396028368 393
-203.19852984 27.6249763788 390
-203.19852984 27.6249763788 387
-202.355382414 27.5103499208 384
-202.355382414 27.5103499208 381
-200.66908756 27.2810970047 378
-200.66908756 27.2810970047 375
-201.512234987 27.3957234627 372
-200.66908756 27.2810970047 369
-198.982792707 27.0518440887 366
-198.13964528 26.9372176307 363
-199.825940133 27.1664705467 360
-198.13964528 26.9372176307 357
-197.296497853 26.8225911727 354
-197.296497853 26.8225911727 351
-197.296497853 26.8225911727 348
-196.453350427 26.7079647147 345
-195.610203 26.5933382567 342
-196.453350427 26.7079647147 339
-195.610203 26.5933382567 336
-194.767055573 26.4787117987 333
-193.923908146 26.3640853407 330
-194.767055573 26.4787117987 327
-193.923908146 26.3640853407 324
-192.237613293 26.1348324247 321
-192.237613293 26.1348324247 318
-191.394465866 26.0202059667 315
-190.551318439 25.9055795087 312
155.982273944 -21.2058947306 306
159.354863651 -21.6644005626 303
192.237613293 -26.1348324247 279
194.767055573 -26.4787117987 276
196.453350427 -26.7079647147 273
198.13964528 -26.9372176307 270
200.66908756 -27.2810970047 267
202.355382414 -27.5103499208 264
204.041677267 -27.7396028368 261
205.727972121 -27.9688557528 258
208.257414401 -28.3127351268 255
208.257414401 -28.3127351268 252
209.943709254 -28.5419880428 249
211.630004108 -28.7712409588 246
212.473151534 -28.8858674168 243
214.159446388 -29.1151203328 240
215.002593814 -29.2297467908 237
215.845741241 -29.3443732488 234
215.845741241 -29.3443732488 231
217.532036095 -29.5736261648 228
217.532036095 -29.5736261648 225
218.375183521 -29.6882526228 222
218.375183521 -29.6882526228 219
220.061478375 -29.9175055388 216
220.061478375 -29.9175055388 213
220.904625802 -30.0321319968 210
220.904625802 -30.0321319968 207
221.747773228 -30.1467584548 204
221.747773228 -30.1467584548 201
221.747773228 -30.1467584548 198
221.747773228 -30.1467584548 195
220.904625802 -30.0321319968 192
220.904625802 -30.0321319968 189
220.061478375 -29.9175055388 186
220.904625802 -30.0321319968 183
219.218330948 -29.8028790808 180
219.218330948 -29.8028790808 177
219.218330948 -29.8028790808 174
218.375183521 -29.6882526228 171
217.532036095 -29.5736261648 168
217.532036095 -29.5736261648 165
216.688888668 -29.4589997068 162
217.532036095 -29.5736261648 159
217.532036095 -29.5736261648 156
116.354344888 -15.8184512044 117
115.511197461 -15.7038247464 114
114.668050034 -15.5891982884 111
161.041158504 -21.8936534786 99
161.041158504 -21.8936534786 96
161.884305931 -22.0082799366 93
161.884305931 -22.0082799366 90
161.884305931 -22.0082799366 87
162.727453358 -22.1229063946 84
163.570600784 -22.2375328526 81
165.256895638 -22.4667857686 78
168.629485345 -22.9252916006 75
172.002075052 -23.3837974326 72
172.845222478 -23.4984238906 69
172.845222478 -23.4984238906 66
172.845222478 -23.4984238906 63
171.158927625 -23.2691709746 60
170.315780198 -23.1545445166 57
170.315780198 -23.1545445166 54
161.041158504 -21.8936534786 51
161.884305931 -22.0082799366 48
162.727453358 -22.1229063946 45
229.336100069 -31.1783965769 27
64.079204431 -8.71161080824 21
239.453869189 -32.5539140729 18
52.2751404568 -7.10684039619 12
52.2751404568 -7.10684039619 9
54.804582737 -7.4507197702 6
56.4908775905 -7.67997268621 3
-222.225306768 26.3972538143 531
-221.380343624 26.2968840279 519
-218.845454193 25.9957746688 492
-217.155527906 25.7950350961 480
-214.620638475 25.493925737 471
-213.775675332 25.3935559506 462
-213.775675332 25.3935559506 456
-213.775675332 25.3935559506 453
-212.085749045 25.1928163779 447
-211.240785901 25.0924465915 444
-211.240785901 25.0924465915 441
-209.550859614 24.8917070188 432
-207.860933327 24.6909674461 429
-208.70589647 24.7913372324 423
-207.860933327 24.6909674461 420
-206.171007039 24.4902278733 411
-205.326043896 24.389858087 408
-205.326043896 24.389858087 402
-205.326043896 24.389858087 399
-205.326043896 24.389858087 396
-204.481080752 24.2894883006 393
-203.636117609 24.1891185142 390
-202.791154465 24.0887487279 384
-201.946191321 23.9883789415 381
-201.946191321 23.9883789415 375
-201.946191321 23.9883789415 372
-201.946191321 23.9883789415 369
-199.411301891 23.6872695824 366
-200.256265034 23.7876393688 363
-200.256265034 23.7876393688 360
-198.566338747 23.586899796 357
-197.721375603 23.4865300097 354
-197.721375603 23.4865300097 351
-197.721375603 23.4865300097 348
-196.87641246 23.3861602233 345
-196.87641246 23.3861602233 342
-196.87641246 23.3861602233 339
-196.031449316 23.2857904369 336
-195.186486173 23.1854206506 333
-194.341523029 23.0850508642 330
-195.186486173 23.1854206506 327
-194.341523029 23.0850508642 324
-192.651596742 22.8843112915 321
-192.651596742 22.8843112915 318
-192.651596742 22.8843112915 315
-190.961670455 22.6835717187 312
153.783292136 -18.2673011186 306
190.961670455 -22.6835717187 279
193.496559885 -22.9846810778 276
196.87641246 -23.3861602233 273
197.721375603 -23.4865300097 270
200.256265034 -23.7876393688 267
201.946191321 -23.9883789415 264
202.791154465 -24.0887487279 261
205.326043896 -24.389858087 258
207.015970183 -24.5905976597 255
208.70589647 -24.7913372324 252
209.550859614 -24.8917070188 249
210.395822757 -24.9920768052 246
212.085749045 -25.1928163779 243
213.775675332 -25.3935559506 240
214.620638475 -25.493925737 237
215.465601619 -25.5942955234 234
215.465601619 -25.5942955234 231
217.155527906 -25.7950350961 228
216.310564763 -25.6946653097 225
218.00049105 -25.8954048825 222
218.845454193 -25.9957746688 219
219.690417337 -26.0961444552 216
219.690417337 -26.0961444552 213
220.535380481 -26.1965142416 210
220.535380481 -26.1965142416 207
221.380343624 -26.2968840279 204
221.380343624 -26.2968840279 201
221.380343624 -26.2968840279 198
221.380343624 -26.2968840279 195
221.380343624 -26.2968840279 192
220.535380481 -26.1965142416 189
220.535380481 -26.1965142416 186
220.535380481 -26.1965142416 183
219.690417337 -26.0961444552 180
218.845454193 -25.9957746688 177
218.845454193 -25.9957746688 174
218.00049105 -25.8954048825 171
218.00049105 -25.8954048825 168
217.155527906 -25.7950350961 165
218.00049105 -25.8954048825 162
216.310564763 -25.6946653097 156
114.070024387 -13.5499211594 117
114.91498753 -13.6502909458 114
112.380098099 -13.3491815867 108
111.535134956 -13.2488118003 105
161.387960428 -19.1706291959 99
161.387960428 -19.1706291959 96
161.387960428 -19.1706291959 93
162.232923572 -19.2709989823 90
162.232923572 -19.2709989823 87
163.077886716 -19.3713687687 84
163.922849859 -19.471738555 81
164.767813003 -19.5721083414 78
168.147665577 -19.9735874869 75
171.527518152 -20.3750666323 72
173.217444439 -20.5758062051 69
173.217444439 -20.5758062051 66
173.217444439 -20.5758062051 63
171.527518152 -20.3750666323 60
171.527518152 -20.3750666323 57
170.682555008 -20.274696846 54
162.232923572 -19.2709989823 51
163.077886716 -19.3713687687 48
163.077886716 -19.3713687687 45
231.519901348 -27.5013214643 30
228.985011917 -27.2002121052 27
64.2171989139 -7.62810376383 21
52.3877149035 -6.2229267547 12
41.4031940366 -4.91811953194 9
54.9226043343 -6.5240361138 6
55.7675674779 -6.62440590016 3
-221.792907196 22.5541342186 519
-220.099831569 22.3819652551 504
-218.406755941 22.2097962916 492
-215.8671425 21.9515428463 480
-217.560218127 22.1237118098 477
-215.8671425 21.9515428463 474
-215.020604686 21.8654583646 462
-213.327529059 21.6932894011 456
-214.174066872 21.7793738828 453
-211.634453431 21.5211204376 441
-212.480991245 21.6072049193 438
-209.941377804 21.3489514741 432
-208.248302176 21.1767825106 426
-209.09483999 21.2628669923 420
-208.248302176 21.1767825106 414
-206.555226549 21.0046135471 411
-205.708688735 20.9185290653 408
-205.708688735 20.9185290653 405
-206.555226549 21.0046135471 402
-205.708688735 20.9185290653 399
-205.708688735 20.9185290653 396
-204.862150921 20.8324445836 393
-204.015613108 20.7463601018 390
-204.862150921 20.8324445836 387
-203.169075294 20.6602756201 384
-202.32253748 20.5741911383 381
-202.32253748 20.5741911383 378
-202.32253748 20.5741911383 375
-201.475999667 20.4881066566 372
-201.475999667 20.4881066566 369
-199.782924039 20.3159376931 366
-199.782924039 20.3159376931 363
-200.629461853 20.4020221748 360
-198.089848412 20.1437687296 357
-198.089848412 20.1437687296 354
-198.089848412 20.1437687296 351
-198.089848412 20.1437687296 348
-197.243310598 20.0576842478 345
-197.243310598 20.0576842478 342
-197.243310598 20.0576842478 339
-196.396772784 19.9715997661 336
-196.396772784 19.9715997661 333
-194.703697157 19.7994308026 330
-194.703697157 19.7994308026 327
-193.857159343 19.7133463208 324
-193.010621529 19.6272618391 321
-193.010621529 19.6272618391 318
-192.164083716 19.5411773573 315
-191.317545902 19.4550928756 312
183.698705578 -18.6803325398 285
188.777932461 -19.1968394303 279
196.396772784 -19.9715997661 270
199.782924039 -20.3159376931 264
204.015613108 -20.7463601018 258
206.555226549 -21.0046135471 255
207.401764363 -21.0906980288 252
208.248302176 -21.1767825106 249
209.09483999 -21.2628669923 246
209.941377804 -21.3489514741 243
211.634453431 -21.5211204376 240
213.327529059 -21.6932894011 237
215.020604686 -21.8654583646 234
215.8671425 -21.9515428463 231
215.8671425 -21.9515428463 228
215.8671425 -21.9515428463 225
216.713680314 -22.0376273281 222
217.560218127 -22.1237118098 219
218.406755941 -22.2097962916 216
219.253293755 -22.2958807733 213
219.253293755 -22.2958807733 210
220.946369382 -22.4680497368 207
219.253293755 -22.2958807733 204
220.099831569 -22.3819652551 201
220.946369382 -22.4680497368 198
220.099831569 -22.3819652551 195
219.253293755 -22.2958807733 192
219.253293755 -22.2958807733 189
218.406755941 -22.2097962916 186
217.560218127 -22.1237118098 183
218.406755941 -22.2097962916 180
216.713680314 -22.0376273281 177
217.560218127 -22.1237118098 174
217.560218127 -22.1237118098 171
215.8671425 -21.9515428463 165
215.020604686 -21.8654583646 162
214.174066872 -21.7793738828 159
213.327529059 -21.6932894011 156
110.896453598 -11.2770671093 114
110.049915784 -11.1909826275 111
109.203377971 -11.1048981458 108
162.535260235 -16.5282204961 99
165.074873676 -16.7864739413 96
165.074873676 -16.7864739413 93
165.074873676 -16.7864739413 90
165.92141149 -16.8725584231 87
166.767949304 -16.9586429048 84
167.614487118 -17.0447273866 81
169.307562745 -17.2168963501 78
171.000638372 -17.3890653136 75
172.693714 -17.5612342771 72
173.540251814 -17.6473187588 69
173.540251814 -17.6473187588 66
173.540251814 -17.6473187588 63
171.847176186 -17.4751497953 60
171.000638372 -17.3890653136 57
171.000638372 -17.3890653136 54
162.535260235 -16.5282204961 51
163.381798049 -16.6143049778 48
162.535260235 -16.5282204961 45
236.184050029 -24.0175704083 36
236.184050029 -24.0175704083 33
249.728655049 -25.3949221163 27
53.3318822647 -5.42332235027 12
51.6388066372 -5.25115338677 9
55.0249578921 -5.59549131377 6
55.8714957059 -5.68157579552 3
-223.837940798 18.9484995201 531
-222.142198823 18.8049502813 519
-222.142198823 18.8049502813 513
-220.446456847 18.6614010425 504
-216.207101907 18.3025279455 480
-217.054972895 18.3743025649 477
-216.207101907 18.3025279455 474
-214.511359932 18.1589787067 462
-213.663488944 18.0872040873 456
-213.663488944 18.0872040873 453
-211.967746968 17.9436548486 441
-211.967746968 17.9436548486 438
-210.272004992 17.8001056098 432
-209.424134004 17.7283309904 420
-208.576263017 17.656556371 414
-207.728392029 17.5847817516 411
-206.032650053 17.4412325128 408
-206.032650053 17.4412325128 405
-206.032650053 17.4412325128 402
-206.032650053 17.4412325128 399
-206.032650053 17.4412325128 396
-205.184779065 17.3694578934 393
-204.336908077 17.297683274 390
-206.032650053 17.4412325128 387
-204.336908077 17.297683274 384
-202.641166101 17.1541340352 381
-202.641166101 17.1541340352 378
-202.641166101 17.1541340352 375
-201.793295114 17.0823594158 372
-201.793295114 17.0823594158 369
-200.097553138 16.938810177 366
-200.097553138 16.938810177 363
-200.945424126 17.0105847964 360
-198.401811162 16.7952609383 357
-198.401811162 16.7952609383 354
-198.401811162 16.7952609383 351
-198.401811162 16.7952609383 348
-197.553940174 16.7234863189 345
-197.553940174 16.7234863189 342
-197.553940174 16.7234863189 339
-196.706069186 16.6517116995 336
-196.706069186 16.6517116995 333
-195.010327211 16.5081624607 330
-195.010327211 16.5081624607 327
-194.162456223 16.4363878413 324
-194.162456223 16.4363878413 321
-193.314585235 16.3646132219 318
-192.466714247 16.2928386025 315
-191.618843259 16.2210639831 312
190.770972271 -16.1492893637 276
200.945424126 -17.0105847964 261
203.489037089 -17.2259086546 258
203.489037089 -17.2259086546 255
205.184779065 -17.3694578934 252
206.880521041 -17.5130071322 249
208.576263017 -17.656556371 246
209.424134004 -17.7283309904 243
211.11987598 -17.8718802292 240
211.967746968 -17.9436548486 237
213.663488944 -18.0872040873 234
214.511359932 -18.1589787067 231
215.35923092 -18.2307533261 228
216.207101907 -18.3025279455 225
216.207101907 -18.3025279455 222
216.207101907 -18.3025279455 219
217.054972895 -18.3743025649 216
217.902843883 -18.4460771843 213
219.598585859 -18.5896264231 210
219.598585859 -18.5896264231 207
219.598585859 -18.5896264231 204
219.598585859 -18.5896264231 198
218.750714871 -18.5178518037 195
218.750714871 -18.5178518037 192
217.902843883 -18.4460771843 189
217.902843883 -18.4460771843 186
217.054972895 -18.3743025649 183
217.054972895 -18.3743025649 177
216.207101907 -18.3025279455 174
216.207101907 -18.3025279455 171
214.511359932 -18.1589787067 168
214.511359932 -18.1589787067 165
213.663488944 -18.0872040873 162
110.223228423 -9.33070052125 117
108.527486448 -9.18715128246 114
107.67961546 -9.11537666307 111
163.639100659 -13.8525015431 99
168.726326587 -14.2831492595 96
169.574197574 -14.3549238788 93
171.26993955 -14.4984731176 90
171.26993955 -14.4984731176 87
172.965681526 -14.6420223564 84
172.117810538 -14.570247737 81
172.965681526 -14.6420223564 78
172.965681526 -14.6420223564 75
252.665554386 -21.3888365795 30
52.5680012481 -4.45002640244 12
50.8722592723 -4.30647716365 9
55.1116142117 -4.66535026063 6
55.9594851996 -4.73712488002 3
-222.42811886 15.0504017641 522
-222.42811886 15.0504017641 519
-220.730194288 14.935513201 504
-219.881232003 14.8780689194 489
-217.334345145 14.7057360748 480
-217.334345145 14.7057360748 477
-215.636420574 14.5908475117 465
-215.636420574 14.5908475117 462
-213.938496003 14.4759589486 456
-213.938496003 14.4759589486 453
-212.240571431 14.3610703855 441
-213.089533717 14.4185146671 438
-210.54264686 14.2461818225 432
-208.844722288 14.1312932594 426
-209.693684574 14.1887375409 420
-207.995760003 14.0738489778 411
-206.297835431 13.9589604148 408
-206.297835431 13.9589604148 402
-206.297835431 13.9589604148 396
-205.448873145 13.9015161332 393
-204.59991086 13.8440718517 390
-204.59991086 13.8440718517 387
-203.750948574 13.7866275701 384
-202.901986288 13.7291832886 381
-202.901986288 13.7291832886 378
-202.901986288 13.7291832886 375
-202.901986288 13.7291832886 372
-202.053024002 13.671739007 369
-201.204061717 13.6142947255 366
-201.204061717 13.6142947255 363
-201.204061717 13.6142947255 360
-199.506137145 13.4994061624 357
-198.65717486 13.4419618809 354
-198.65717486 13.4419618809 351
-198.65717486 13.4419618809 348
-197.808212574 13.3845175993 345
-197.808212574 13.3845175993 342
-197.808212574 13.3845175993 339
-196.959250288 13.3270733178 336
-196.959250288 13.3270733178 333
-195.261325717 13.2121847547 330
-195.261325717 13.2121847547 327
-194.412363431 13.1547404732 324
-193.563401145 13.0972961916 321
-193.563401145 13.0972961916 318
-192.714438859 13.0398519101 315
-191.865476574 12.9824076285 312
-191.865476574 12.9824076285 309
201.204061717 -13.6142947255 258
203.750948574 -13.7866275701 255
204.59991086 -13.8440718517 252
206.297835431 -13.9589604148 249
207.146797717 -14.0164046963 246
208.844722288 -14.1312932594 243
210.54264686 -14.2461818225 240
210.54264686 -14.2461818225 237
212.240571431 -14.3610703855 234
213.089533717 -14.4185146671 231
213.938496003 -14.4759589486 228
215.636420574 -14.5908475117 225
216.48538286 -14.6482917933 222
216.48538286 -14.6482917933 219
216.48538286 -14.6482917933 216
217.334345145 -14.7057360748 213
218.183307431 -14.7631803563 210
219.032269717 -14.8206246379 207
219.032269717 -14.8206246379 204
218.183307431 -14.7631803563 201
219.032269717 -14.8206246379 198
219.032269717 -14.8206246379 195
218.183307431 -14.7631803563 186
217.334345145 -14.7057360748 183
216.48538286 -14.6482917933 180
215.636420574 -14.5908475117 177
214.787458288 -14.5334032302 171
213.938496003 -14.4759589486 168
106.969248001 -7.23797947432 117
106.969248001 -7.23797947432 114
163.849721145 -11.0867463376 99
168.943494859 -11.4314120269 96
169.792457145 -11.4888563084 93
170.641419431 -11.54630059 90
171.490381716 -11.6037448715 87
172.339344002 -11.6611891531 84
173.188306288 -11.7186334346 81
173.188306288 -11.7186334346 78
173.188306288 -11.7186334346 75
244.501138289 -16.5439530841 42
258.933497146 -17.5205058704 33
52.6356617149 -3.56154545562 12
51.7866994292 -3.50410117407 9
55.1825485721 -3.73387830024 6
56.0315108578 -3.79132258178 3
-222.650585742 11.2915597453 519
-220.101151554 11.1622670764 486
-216.70190597 10.9898768513 477
-215.002283178 10.9036817387 462
-214.152471782 10.8605841825 456
-214.152471782 10.8605841825 453
-212.452848991 10.7743890699 441
-213.302660387 10.8174866262 438
-211.603037595 10.7312915136 432
-209.903414803 10.6450964011 429
-209.053603407 10.6019988448 426
-209.903414803 10.6450964011 420
-209.053603407 10.6019988448 414
-208.203792011 10.5589012885 411
-206.504169219 10.4727061759 408
-207.353980615 10.5158037322 405
-206.504169219 10.4727061759 402
-206.504169219 10.4727061759 399
-206.504169219 10.4727061759 396
-205.654357823 10.4296086197 393
-205.654357823 10.4296086197 390
-204.804546427 10.3865110634 387
-204.804546427 10.3865110634 384
-203.104923635 10.3003159508 381
-203.104923635 10.3003159508 378
-203.104923635 10.3003159508 375
-202.255112239 10.2572183945 372
-202.255112239 10.2572183945 369
-201.405300843 10.2141208383 366
-200.555489447 10.171023282 363
-201.405300843 10.2141208383 360
-198.855866655 10.0848281694 357
-198.855866655 10.0848281694 354
-198.006055259 10.0417306131 351
-198.006055259 10.0417306131 348
-198.006055259 10.0417306131 345
-198.006055259 10.0417306131 342
-198.006055259 10.0417306131 339
-197.156243863 9.99863305686 336
-197.156243863 9.99863305686 333
-195.456621071 9.9124379443 330
-195.456621071 9.9124379443 327
-194.606809675 9.86934038802 324
-194.606809675 9.86934038802 321
-193.756998279 9.82624283174 318
-192.907186883 9.78314527547 315
-192.057375487 9.74004771919 312
143.618125918 -7.28348701125 306
193.756998279 -9.82624283174 270
194.606809675 -9.86934038802 267
198.855866655 -10.0848281694 261
202.255112239 -10.2572183945 255
204.804546427 -10.3865110634 252
204.804546427 -10.3865110634 249
207.353980615 -10.5158037322 246
208.203792011 -10.5589012885 243
209.903414803 -10.6450964011 240
210.753226199 -10.6881939573 237
211.603037595 -10.7312915136 234
211.603037595 -10.7312915136 231
214.152471782 -10.8605841825 228
214.152471782 -10.8605841825 225
215.852094574 -10.946779295 222
215.852094574 -10.946779295 219
216.70190597 -10.9898768513 216
216.70190597 -10.9898768513 213
217.551717366 -11.0329744076 210
218.401528762 -11.0760719639 207
217.551717366 -11.0329744076 204
218.401528762 -11.0760719639 201
218.401528762 -11.0760719639 195
216.70190597 -10.9898768513 189
216.70190597 -10.9898768513 186
215.002283178 -10.9036817387 180
215.002283178 -10.9036817387 177
105.376613099 -5.34409697867 114
105.376613099 -5.34409697867 111
164.013599421 -8.31782836196 99
168.262656401 -8.53331614336 96
169.962279192 -8.61951125592 93
170.812090588 -8.6626088122 90
171.661901984 -8.70570636848 87
172.51171338 -8.74880392476 84
174.211336172 -8.83499903731 81
173.361524776 -8.79190148103 78
174.211336172 -8.83499903731 75
244.745682037 -12.4120962085 42
51.8384951537 -2.62895093305 12
51.8384951537 -2.62895093305 9
55.2377407375 -2.80134115817 6
56.9373635295 -2.88753627073 3
-227.912044463 7.70192774629 552
-221.108699852 7.47201945536 510
-220.258281776 7.44328091899 495
-220.258281776 7.44328091899 486
-218.557445623 7.38580384626 483
-216.856609471 7.32832677352 477
-216.006191394 7.29958823716 474
-216.856609471 7.32832677352 471
-216.006191394 7.29958823716 468
-216.006191394 7.29958823716 465
-216.006191394 7.29958823716 462
-214.305355242 7.24211116442 453
-211.754101013 7.15589555532 435
-210.903682936 7.12715701896 432
-210.05326486 7.09841848259 429
-210.05326486 7.09841848259 423
-210.05326486 7.09841848259 420
-210.05326486 7.09841848259 417
-208.352428707 7.04094140986 411
-207.502010631 7.01220287349 408
-206.651592554 6.98346433712 405
-206.651592554 6.98346433712 402
-205.801174478 6.95472580076 399
-205.801174478 6.95472580076 396
-205.801174478 6.95472580076 393
-204.950756402 6.92598726439 390
-204.950756402 6.92598726439 387
-204.100338325 6.89724872802 384
-203.249920249 6.86851019165 381
-203.249920249 6.86851019165 378
-203.249920249 6.86851019165 375
-202.399502173 6.83977165529 372
-200.69866602 6.78229458255 369
-202.399502173 6.83977165529 366
-201.549084096 6.81103311892 363
-201.549084096 6.81103311892 360
-199.848247944 6.75355604619 357
-198.997829867 6.72481750982 354
-198.147411791 6.69607897345 351
-198.147411791 6.69607897345 348
-198.147411791 6.69607897345 345
-198.147411791 6.69607897345 342
-198.147411791 6.69607897345 339
-196.446575638 6.63860190072 336
-197.296993714 6.66734043709 333
-195.596157562 6.60986336435 330
-195.596157562 6.60986336435 327
-193.895321409 6.55238629162 324
-194.745739485 6.58112482799 321
-193.044903333 6.52364775525 318
-193.044903333 6.52364775525 315
-193.895321409 6.55238629162 312
146.271909133 -4.94302825508 303
199.848247944 -6.75355604619 255
202.399502173 -6.83977165529 252
203.249920249 -6.86851019165 249
204.950756402 -6.92598726439 246
205.801174478 -6.95472580076 243
207.502010631 -7.01220287349 240
208.352428707 -7.04094140986 237
209.202846783 -7.06967994622 234
210.903682936 -7.12715701896 231
211.754101013 -7.15589555532 228
211.754101013 -7.15589555532 225
213.454937165 -7.21337262806 222
213.454937165 -7.21337262806 219
214.305355242 -7.24211116442 216
216.006191394 -7.29958823716 213
216.006191394 -7.29958823716 210
216.006191394 -7.29958823716 207
216.006191394 -7.29958823716 204
216.006191394 -7.29958823716 198
101.199751086 -3.41988582764 114
162.429852584 -5.48906044605 102
164.130688737 -5.54653751878 99
167.532361042 -5.66149166425 96
169.233197195 -5.71896873698 93
170.934033347 -5.77644580972 90
171.784451424 -5.80518434608 87
172.6348695 -5.83392288245 84
172.6348695 -5.83392288245 81
172.6348695 -5.83392288245 78
173.485287577 -5.86266141882 75
164.981106813 -5.57527605515 72
164.130688737 -5.54653751878 69
164.130688737 -5.54653751878 66
163.28027066 -5.51779898242 63
163.28027066 -5.51779898242 60
163.28027066 -5.51779898242 57
52.725920734 -1.78178925474 12
52.725920734 -1.78178925474 9
55.2771749631 -1.86800486384 6
56.9780111158 -1.92548193657 3
-229.711181535 3.88025587928 570
-222.904924304 3.76528533471 522
-221.203359997 3.73654269856 510
-221.203359997 3.73654269856 495
-218.651013535 3.69342874435 483
-216.949449228 3.66468610821 477
-216.098667074 3.65031479014 474
-216.098667074 3.65031479014 468
-212.695538458 3.59282951785 447
-210.993974151 3.56408688171 432
-210.143191997 3.54971556364 429
-210.143191997 3.54971556364 423
-210.143191997 3.54971556364 420
-209.292409843 3.53534424556 417
-209.292409843 3.53534424556 414
-208.441627689 3.52097292749 411
-207.590845535 3.50660160942 408
-206.740063382 3.49223029135 402
-205.889281228 3.47785897328 399
-206.740063382 3.49223029135 396
-205.889281228 3.47785897328 393
-205.038499074 3.46348765521 390
-205.889281228 3.47785897328 387
-203.336934766 3.43474501906 384
-203.336934766 3.43474501906 381
-203.336934766 3.43474501906 378
-202.486152612 3.42037370099 375
-201.635370459 3.40600238292 372
-200.784588305 3.39163106485 369
-201.635370459 3.40600238292 366
-200.784588305 3.39163106485 363
-200.784588305 3.39163106485 360
-199.933806151 3.37725974678 357
-199.083023997 3.36288842871 354
-198.232241843 3.34851711064 351
-198.232241843 3.34851711064 348
-198.232241843 3.34851711064 345
-198.232241843 3.34851711064 342
-198.232241843 3.34851711064 339
-196.530677536 3.31977447449 336
-197.381459689 3.33414579256 333
-195.679895382 3.30540315642 330
-195.679895382 3.30540315642 327
-193.978331074 3.27666052028 324
-193.978331074 3.27666052028 321
-192.276766766 3.24791788414 318
-193.12754892 3.26228920221 315
-192.276766766 3.24791788414 312
-191.425984613 3.23354656607 306
