-200.355099431 -13.556850444 260
-201.204061717 -13.6142947255 259
-201.204061717 -13.6142947255 258
-202.901986288 -13.7291832886 257
-202.901986288 -13.7291832886 256
-203.750948574 -13.7866275701 255
-203.750948574 -13.7866275701 254
-205.448873145 -13.9015161332 253
-205.448873145 -13.9015161332 252
-205.448873145 -13.9015161332 251
-206.297835431 -13.9589604148 250
-206.297835431 -13.9589604148 249
-207.146797717 -14.0164046963 248
-207.146797717 -14.0164046963 247
-207.146797717 -14.0164046963 246
-207.995760003 -14.0738489778 245
-208.844722288 -14.1312932594 244
-208.844722288 -14.1312932594 243
-209.693684574 -14.1887375409 242
-210.54264686 -14.2461818225 241
-211.391609145 -14.303626104 240
-211.391609145 -14.303626104 239
-211.391609145 -14.303626104 238
-213.089533717 -14.4185146671 237
-213.089533717 -14.4185146671 236
-213.089533717 -14.4185146671 235
-213.089533717 -14.4185146671 234
-213.938496003 -14.4759589486 233
-213.938496003 -14.4759589486 232
-213.938496003 -14.4759589486 231
-214.787458288 -14.5334032302 230
-214.787458288 -14.5334032302 229
-214.787458288 -14.5334032302 228
-215.636420574 -14.5908475117 227
-215.636420574 -14.5908475117 226
-216.48538286 -14.6482917933 225
-217.334345145 -14.7057360748 224
-217.334345145 -14.7057360748 223
-217.334345145 -14.7057360748 222
-217.334345145 -14.7057360748 221
-217.334345145 -14.7057360748 220
-218.183307431 -14.7631803563 219
-218.183307431 -14.7631803563 218
-218.183307431 -14.7631803563 217
-218.183307431 -14.7631803563 216
-219.032269717 -14.8206246379 215
-219.032269717 -14.8206246379 214
-219.881232003 -14.8780689194 213
-219.032269717 -14.8206246379 212
-219.032269717 -14.8206246379 211
-221.579156574 -14.9929574825 210
-221.579156574 -14.9929574825 209
-220.730194288 -14.935513201 208
-221.579156574 -14.9929574825 207
-220.730194288 -14.935513201 206
-220.730194288 -14.935513201 205
-219.881232003 -14.8780689194 204
-219.881232003 -14.8780689194 203
-219.881232003 -14.8780689194 202
-220.730194288 -14.935513201 201
-220.730194288 -14.935513201 200
-220.730194288 -14.935513201 199
-220.730194288 -14.935513201 198
-220.730194288 -14.935513201 197
-220.730194288 -14.935513201 196
-220.730194288 -14.935513201 195
-219.881232003 -14.8780689194 194
-219.881232003 -14.8780689194 193
210.272004992 17.8001056098 432
210.272004992 17.8001056098 431
210.272004992 17.8001056098 430
212.815617956 18.015429468 429
209.424134004 17.7283309904 426
209.424134004 17.7283309904 425
208.576263017 17.656556371 424
210.272004992 17.8001056098 423
210.272004992 17.8001056098 422
210.272004992 17.8001056098 421
208.576263017 17.656556371 416
209.424134004 17.7283309904 415
209.424134004 17.7283309904 414
208.576263017 17.656556371 413
208.576263017 17.656556371 412
208.576263017 17.656556371 411
208.576263017 17.656556371 410
207.728392029 17.5847817516 409
206.880521041 17.5130071322 408
206.880521041 17.5130071322 407
207.728392029 17.5847817516 406
207.728392029 17.5847817516 405
206.880521041 17.5130071322 404
206.880521041 17.5130071322 403
206.032650053 17.4412325128 402
206.032650053 17.4412325128 401
206.032650053 17.4412325128 400
206.032650053 17.4412325128 399
206.032650053 17.4412325128 398
205.184779065 17.3694578934 397
206.032650053 17.4412325128 396
206.032650053 17.4412325128 395
206.032650053 17.4412325128 394
205.184779065 17.3694578934 393
205.184779065 17.3694578934 392
205.184779065 17.3694578934 391
205.184779065 17.3694578934 390
206.032650053 17.4412325128 389
205.184779065 17.3694578934 388
205.184779065 17.3694578934 387
204.336908077 17.297683274 386
204.336908077 17.297683274 385
204.336908077 17.297683274 384
205.184779065 17.3694578934 383
201.793295114 17.0823594158 381
203.489037089 17.2259086546 380
203.489037089 17.2259086546 377
203.489037089 17.2259086546 376
202.641166101 17.1541340352 375
201.793295114 17.0823594158 374
201.793295114 17.0823594158 373
201.793295114 17.0823594158 372
201.793295114 17.0823594158 371
201.793295114 17.0823594158 370
201.793295114 17.0823594158 369
201.793295114 17.0823594158 368
202.641166101 17.1541340352 367
202.641166101 17.1541340352 366
201.793295114 17.0823594158 365
201.793295114 17.0823594158 364
200.945424126 17.0105847964 363
201.793295114 17.0823594158 361
200.945424126 17.0105847964 360
200.097553138 16.938810177 359
200.097553138 16.938810177 358
200.097553138 16.938810177 357
200.097553138 16.938810177 356
199.24968215 16.8670355576 353
198.401811162 16.7952609383 352
198.401811162 16.7952609383 351
198.401811162 16.7952609383 350
198.401811162 16.7952609383 349
197.553940174 16.7234863189 348
197.553940174 16.7234863189 347
198.401811162 16.7952609383 346
198.401811162 16.7952609383 345
197.553940174 16.7234863189 344
197.553940174 16.7234863189 343
197.553940174 16.7234863189 342
197.553940174 16.7234863189 341
197.553940174 16.7234863189 340
197.553940174 16.7234863189 339
197.553940174 16.7234863189 338
197.553940174 16.7234863189 337
196.706069186 16.6517116995 336
196.706069186 16.6517116995 335
196.706069186 16.6517116995 334
196.706069186 16.6517116995 333
196.706069186 16.6517116995 332
196.706069186 16.6517116995 331
195.858198198 16.5799370801 330
195.858198198 16.5799370801 329
195.858198198 16.5799370801 328
195.010327211 16.5081624607 327
195.010327211 16.5081624607 326
195.010327211 16.5081624607 325
195.010327211 16.5081624607 324
194.162456223 16.4363878413 323
195.010327211 16.5081624607 322
194.162456223 16.4363878413 321
195.010327211 16.5081624607 320
194.162456223 16.4363878413 319
193.314585235 16.3646132219 318
193.314585235 16.3646132219 317
193.314585235 16.3646132219 316
192.466714247 16.2928386025 315
193.314585235 16.3646132219 314
192.466714247 16.2928386025 313
192.466714247 16.2928386025 312
192.466714247 16.2928386025 311
191.618843259 16.2210639831 310
191.618843259 16.2210639831 309
191.618843259 16.2210639831 308
192.466714247 16.2928386025 307
-140.746583987 -11.9145868194 306
-144.138067938 -12.201685297 305
-148.377422878 -12.560558394 304
-150.073164853 -12.7041076328 303
-154.312519793 -13.0629807298 302
-156.008261768 -13.2065299685 301
-157.704003744 -13.3500792073 300
-161.095487696 -13.6371776849 299
-161.943358684 -13.7089523043 298
-162.791229671 -13.7807269237 297
-164.486971647 -13.9242761625 296
-167.030584611 -14.1396000207 295
-168.726326587 -14.2831492595 294
-168.726326587 -14.2831492595 293
-172.117810538 -14.570247737 292
-173.813552514 -14.7137969758 291
-174.661423502 -14.7855715952 290
-175.50929449 -14.8573462146 289
-176.357165477 -14.929120834 288
-178.052907453 -15.0726700728 287
-178.900778441 -15.1444446922 286
-180.596520417 -15.287993931 285
-180.596520417 -15.287993931 284
-181.444391405 -15.3597685504 283
-183.14013338 -15.5033177892 282
-183.988004368 -15.5750924085 281
-185.683746344 -15.7186416473 280
-186.531617332 -15.7904162667 279
-188.227359308 -15.9339655055 278
-188.227359308 -15.9339655055 277
-189.075230296 -16.0057401249 276
-189.923101283 -16.0775147443 275
-190.770972271 -16.1492893637 274
-191.618843259 -16.2210639831 273
-192.466714247 -16.2928386025 272
-194.162456223 -16.4363878413 271
-195.010327211 -16.5081624607 270
-195.010327211 -16.5081624607 269
-195.858198198 -16.5799370801 268
-196.706069186 -16.6517116995 267
-197.553940174 -16.7234863189 266
-197.553940174 -16.7234863189 265
-199.24968215 -16.8670355576 264
-199.24968215 -16.8670355576 263
-200.945424126 -17.0105847964 262
-200.945424126 -17.0105847964 261
-200.945424126 -17.0105847964 260
-201.793295114 -17.0823594158 259
-202.641166101 -17.1541340352 258
-203.489037089 -17.2259086546 257
-204.336908077 -17.297683274 256
-204.336908077 -17.297683274 255
-204.336908077 -17.297683274 254
-205.184779065 -17.3694578934 253
-205.184779065 -17.3694578934 252
-206.880521041 -17.5130071322 251
-206.880521041 -17.5130071322 250
-206.880521041 -17.5130071322 249
-206.880521041 -17.5130071322 248
-207.728392029 -17.5847817516 247
-208.576263017 -17.656556371 246
-208.576263017 -17.656556371 245
-209.424134004 -17.7283309904 244
-209.424134004 -17.7283309904 243
-211.11987598 -17.8718802292 242
-211.11987598 -17.8718802292 241
-211.967746968 -17.9436548486 240
-212.815617956 -18.015429468 239
-212.815617956 -18.015429468 238
-212.815617956 -18.015429468 237
-212.815617956 -18.015429468 236
-212.815617956 -18.015429468 235
-212.815617956 -18.015429468 234
-213.663488944 -18.0872040873 233
-214.511359932 -18.1589787067 232
-214.511359932 -18.1589787067 231
-214.511359932 -18.1589787067 230
-214.511359932 -18.1589787067 229
-216.207101907 -18.3025279455 228
-216.207101907 -18.3025279455 227
-217.054972895 -18.3743025649 226
-217.054972895 -18.3743025649 225
-217.054972895 -18.3743025649 224
-217.054972895 -18.3743025649 223
-217.054972895 -18.3743025649 222
-217.054972895 -18.3743025649 221
-217.054972895 -18.3743025649 220
-217.902843883 -18.4460771843 219
-218.750714871 -18.5178518037 218
-218.750714871 -18.5178518037 217
-220.446456847 -18.6614010425 216
-219.598585859 -18.5896264231 215
-219.598585859 -18.5896264231 214
-219.598585859 -18.5896264231 213
-219.598585859 -18.5896264231 212
-219.598585859 -18.5896264231 211
-220.446456847 -18.6614010425 210
-222.142198823 -18.8049502813 209
-222.99006981 -18.8767249007 208
-222.142198823 -18.8049502813 207
-221.294327835 -18.7331756619 206
-220.446456847 -18.6614010425 205
-221.294327835 -18.7331756619 204
-221.294327835 -18.7331756619 203
-221.294327835 -18.7331756619 202
-221.294327835 -18.7331756619 201
-222.142198823 -18.8049502813 200
-222.142198823 -18.8049502813 199
-222.142198823 -18.8049502813 198
-221.294327835 -18.7331756619 197
-221.294327835 -18.7331756619 196
-221.294327835 -18.7331756619 195
-221.294327835 -18.7331756619 194
-220.446456847 -18.6614010425 193
210.787915618 21.4350359558 432
209.941377804 21.3489514741 431
210.787915618 21.4350359558 430
210.787915618 21.4350359558 429
210.787915618 21.4350359558 428
210.787915618 21.4350359558 427
209.09483999 21.2628669923 426
209.09483999 21.2628669923 425
209.941377804 21.3489514741 424
209.941377804 21.3489514741 423
209.941377804 21.3489514741 422
209.09483999 21.2628669923 421
209.941377804 21.3489514741 420
208.248302176 21.1767825106 419
208.248302176 21.1767825106 416
208.248302176 21.1767825106 415
208.248302176 21.1767825106 414
207.401764363 21.0906980288 413
207.401764363 21.0906980288 412
208.248302176 21.1767825106 411
207.401764363 21.0906980288 410
207.401764363 21.0906980288 409
206.555226549 21.0046135471 408
206.555226549 21.0046135471 407
207.401764363 21.0906980288 406
207.401764363 21.0906980288 405
206.555226549 21.0046135471 404
206.555226549 21.0046135471 403
206.555226549 21.0046135471 402
205.708688735 20.9185290653 401
204.862150921 20.8324445836 400
204.862150921 20.8324445836 399
205.708688735 20.9185290653 398
205.708688735 20.9185290653 397
205.708688735 20.9185290653 396
205.708688735 20.9185290653 395
205.708688735 20.9185290653 394
205.708688735 20.9185290653 393
204.862150921 20.8324445836 392
204.015613108 20.7463601018 391
204.015613108 20.7463601018 390
204.862150921 20.8324445836 389
204.862150921 20.8324445836 388
204.862150921 20.8324445836 387
203.169075294 20.6602756201 386
204.015613108 20.7463601018 385
204.015613108 20.7463601018 384
204.015613108 20.7463601018 383
202.32253748 20.5741911383 382
202.32253748 20.5741911383 381
203.169075294 20.6602756201 380
204.015613108 20.7463601018 379
202.32253748 20.5741911383 378
203.169075294 20.6602756201 377
203.169075294 20.6602756201 376
201.475999667 20.4881066566 374
201.475999667 20.4881066566 373
201.475999667 20.4881066566 372
200.629461853 20.4020221748 371
201.475999667 20.4881066566 370
201.475999667 20.4881066566 369
201.475999667 20.4881066566 368
202.32253748 20.5741911383 367
201.475999667 20.4881066566 366
201.475999667 20.4881066566 365
201.475999667 20.4881066566 364
200.629461853 20.4020221748 363
199.782924039 20.3159376931 362
201.475999667 20.4881066566 361
199.782924039 20.3159376931 360
199.782924039 20.3159376931 359
199.782924039 20.3159376931 358
199.782924039 20.3159376931 357
198.936386225 20.2298532113 356
199.782924039 20.3159376931 355
199.782924039 20.3159376931 354
198.936386225 20.2298532113 353
198.089848412 20.1437687296 352
198.089848412 20.1437687296 351
198.089848412 20.1437687296 350
198.089848412 20.1437687296 349
197.243310598 20.0576842478 348
197.243310598 20.0576842478 347
198.089848412 20.1437687296 346
197.243310598 20.0576842478 345
197.243310598 20.0576842478 344
197.243310598 20.0576842478 343
197.243310598 20.0576842478 342
197.243310598 20.0576842478 341
197.243310598 20.0576842478 340
197.243310598 20.0576842478 339
197.243310598 20.0576842478 338
197.243310598 20.0576842478 337
197.243310598 20.0576842478 336
196.396772784 19.9715997661 335
196.396772784 19.9715997661 334
196.396772784 19.9715997661 333
196.396772784 19.9715997661 332
196.396772784 19.9715997661 331
195.55023497 19.8855152843 330
195.55023497 19.8855152843 329
194.703697157 19.7994308026 328
194.703697157 19.7994308026 327
194.703697157 19.7994308026 326
194.703697157 19.7994308026 325
193.857159343 19.7133463208 324
194.703697157 19.7994308026 323
193.857159343 19.7133463208 322
193.857159343 19.7133463208 321
194.703697157 19.7994308026 320
193.010621529 19.6272618391 319
193.010621529 19.6272618391 318
193.010621529 19.6272618391 317
193.010621529 19.6272618391 316
192.164083716 19.5411773573 315
193.010621529 19.6272618391 314
193.010621529 19.6272618391 313
192.164083716 19.5411773573 312
192.164083716 19.5411773573 311
192.164083716 19.5411773573 310
191.317545902 19.4550928756 309
191.317545902 19.4550928756 308
191.317545902 19.4550928756 307
190.471008088 19.3690083938 306
-149.837193029 -15.2369532698 305
-151.530268657 -15.4091222333 304
-154.069882098 -15.6673756786 303
-155.762957725 -15.8395446421 302
-159.14910898 -16.1838825691 301
-161.688722421 -16.4421360143 300
-163.381798049 -16.6143049778 299
-165.074873676 -16.7864739413 298
-167.614487118 -17.0447273866 297
-167.614487118 -17.0447273866 296
-169.307562745 -17.2168963501 295
-171.000638372 -17.3890653136 294
-171.847176186 -17.4751497953 293
-174.386789627 -17.7334032406 292
-175.233327441 -17.8194877223 291
-176.079865255 -17.9055722041 290
-177.772940882 -18.0777411676 289
-179.46601651 -18.2499101311 288
-181.159092137 -18.4220790946 287
-182.005629951 -18.5081635763 286
-182.005629951 -18.5081635763 285
-182.852167765 -18.5942480581 284
-184.545243392 -18.7664170216 283
-186.23831902 -18.9385859851 282
-187.084856833 -19.0246704668 281
-187.931394647 -19.1107549486 280
-188.777932461 -19.1968394303 279
-188.777932461 -19.1968394303 278
-189.624470274 -19.2829239121 277
-191.317545902 -19.4550928756 276
-192.164083716 -19.5411773573 275
-193.857159343 -19.7133463208 274
-193.857159343 -19.7133463208 273
-194.703697157 -19.7994308026 272
-195.55023497 -19.8855152843 271
-196.396772784 -19.9715997661 270
-197.243310598 -20.0576842478 269
-198.089848412 -20.1437687296 268
-198.936386225 -20.2298532113 267
-199.782924039 -20.3159376931 266
-200.629461853 -20.4020221748 265
-200.629461853 -20.4020221748 264
-201.475999667 -20.4881066566 263
-202.32253748 -20.5741911383 262
-202.32253748 -20.5741911383 261
-202.32253748 -20.5741911383 260
-204.015613108 -20.7463601018 259
-204.015613108 -20.7463601018 258
-204.862150921 -20.8324445836 257
-205.708688735 -20.9185290653 256
-206.555226549 -21.0046135471 255
-206.555226549 -21.0046135471 254
-206.555226549 -21.0046135471 253
-206.555226549 -21.0046135471 252
-208.248302176 -21.1767825106 251
-209.09483999 -21.2628669923 250
-209.09483999 -21.2628669923 249
-209.09483999 -21.2628669923 248
-209.941377804 -21.3489514741 247
-210.787915618 -21.4350359558 246
-210.787915618 -21.4350359558 245
-211.634453431 -21.5211204376 244
-211.634453431 -21.5211204376 243
-212.480991245 -21.6072049193 242
-212.480991245 -21.6072049193 241
-212.480991245 -21.6072049193 240
-212.480991245 -21.6072049193 239
-213.327529059 -21.6932894011 238
-213.327529059 -21.6932894011 237
-214.174066872 -21.7793738828 236
-214.174066872 -21.7793738828 235
-215.020604686 -21.8654583646 234
-215.8671425 -21.9515428463 233
-215.8671425 -21.9515428463 232
-216.713680314 -22.0376273281 231
-217.560218127 -22.1237118098 230
-217.560218127 -22.1237118098 229
-217.560218127 -22.1237118098 228
-217.560218127 -22.1237118098 227
-217.560218127 -22.1237118098 226
-218.406755941 -22.2097962916 225
-218.406755941 -22.2097962916 224
-219.253293755 -22.2958807733 223
-218.406755941 -22.2097962916 222
-219.253293755 -22.2958807733 221
-219.253293755 -22.2958807733 220
-219.253293755 -22.2958807733 219
-219.253293755 -22.2958807733 218
-219.253293755 -22.2958807733 217
-220.099831569 -22.3819652551 216
-220.099831569 -22.3819652551 215
-220.946369382 -22.4680497368 214
-220.946369382 -22.4680497368 213
-221.792907196 -22.5541342186 212
-220.099831569 -22.3819652551 211
-220.946369382 -22.4680497368 210
-221.792907196 -22.5541342186 209
-221.792907196 -22.5541342186 208
-222.63944501 -22.6402187003 207
-221.792907196 -22.5541342186 206
-222.63944501 -22.6402187003 205
-222.63944501 -22.6402187003 204
-222.63944501 -22.6402187003 203
-222.63944501 -22.6402187003 202
-223.485982823 -22.7263031821 201
-223.485982823 -22.7263031821 200
-223.485982823 -22.7263031821 199
-223.485982823 -22.7263031821 198
-222.63944501 -22.6402187003 197
-223.485982823 -22.7263031821 196
-222.63944501 -22.6402187003 195
-222.63944501 -22.6402187003 194
-222.63944501 -22.6402187003 193
209.550859614 24.8917070188 431
210.395822757 24.9920768052 430
210.395822757 24.9920768052 429
211.240785901 25.0924465915 428
208.70589647 24.7913372324 423
208.70589647 24.7913372324 422
207.860933327 24.6909674461 418
207.860933327 24.6909674461 416
208.70589647 24.7913372324 415
207.015970183 24.5905976597 414
207.015970183 24.5905976597 413
207.015970183 24.5905976597 412
207.860933327 24.6909674461 411
207.015970183 24.5905976597 410
207.015970183 24.5905976597 409
207.015970183 24.5905976597 408
207.015970183 24.5905976597 407
207.015970183 24.5905976597 406
207.015970183 24.5905976597 405
206.171007039 24.4902278733 404
207.015970183 24.5905976597 403
206.171007039 24.4902278733 402
205.326043896 24.389858087 401
205.326043896 24.389858087 400
205.326043896 24.389858087 399
205.326043896 24.389858087 398
205.326043896 24.389858087 397
205.326043896 24.389858087 396
205.326043896 24.389858087 395
205.326043896 24.389858087 394
204.481080752 24.2894883006 392
203.636117609 24.1891185142 391
203.636117609 24.1891185142 390
204.481080752 24.2894883006 389
204.481080752 24.2894883006 388
205.326043896 24.389858087 387
204.481080752 24.2894883006 386
203.636117609 24.1891185142 385
203.636117609 24.1891185142 384
203.636117609 24.1891185142 383
201.946191321 23.9883789415 382
202.791154465 24.0887487279 381
202.791154465 24.0887487279 380
202.791154465 24.0887487279 377
202.791154465 24.0887487279 376
201.101228178 23.8880091551 373
201.101228178 23.8880091551 372
200.256265034 23.7876393688 371
201.101228178 23.8880091551 370
201.101228178 23.8880091551 369
200.256265034 23.7876393688 368
201.101228178 23.8880091551 367
201.101228178 23.8880091551 366
201.946191321 23.9883789415 365
201.101228178 23.8880091551 364
200.256265034 23.7876393688 363
200.256265034 23.7876393688 362
201.101228178 23.8880091551 361
200.256265034 23.7876393688 360
199.411301891 23.6872695824 359
199.411301891 23.6872695824 358
199.411301891 23.6872695824 357
198.566338747 23.586899796 356
199.411301891 23.6872695824 355
199.411301891 23.6872695824 354
198.566338747 23.586899796 353
197.721375603 23.4865300097 352
197.721375603 23.4865300097 351
197.721375603 23.4865300097 350
196.87641246 23.3861602233 348
196.87641246 23.3861602233 347
197.721375603 23.4865300097 346
196.87641246 23.3861602233 345
196.87641246 23.3861602233 344
197.721375603 23.4865300097 343
197.721375603 23.4865300097 342
196.87641246 23.3861602233 341
196.87641246 23.3861602233 340
196.87641246 23.3861602233 339
196.87641246 23.3861602233 338
196.87641246 23.3861602233 337
196.87641246 23.3861602233 336
196.031449316 23.2857904369 335
196.031449316 23.2857904369 334
196.031449316 23.2857904369 333
196.031449316 23.2857904369 332
196.031449316 23.2857904369 331
194.341523029 23.0850508642 330
195.186486173 23.1854206506 329
195.186486173 23.1854206506 328
195.186486173 23.1854206506 327
195.186486173 23.1854206506 326
194.341523029 23.0850508642 325
194.341523029 23.0850508642 324
194.341523029 23.0850508642 323
194.341523029 23.0850508642 322
193.496559885 22.9846810778 321
193.496559885 22.9846810778 320
193.496559885 22.9846810778 319
192.651596742 22.8843112915 318
192.651596742 22.8843112915 317
192.651596742 22.8843112915 316
192.651596742 22.8843112915 315
192.651596742 22.8843112915 314
191.806633598 22.7839415051 313
-132.659213546 -15.7580564595 311
191.806633598 22.7839415051 310
190.961670455 22.6835717187 309
190.961670455 22.6835717187 308
-142.798771269 -16.9624938959 307
-145.3336607 -17.263603255 306
-148.713513274 -17.6650824004 305
-153.783292136 -18.2673011186 304
-154.62825528 -18.367670905 303
-157.16314471 -18.6687802641 302
-161.387960428 -19.1706291959 301
-161.387960428 -19.1706291959 300
-163.077886716 -19.3713687687 299
-165.612776146 -19.6724781278 298
-167.302702434 -19.8732177005 297
-168.147665577 -19.9735874869 296
-169.837591864 -20.1743270596 295
-171.527518152 -20.3750666323 294
-173.217444439 -20.5758062051 293
-174.907370726 -20.7765457778 292
-174.907370726 -20.7765457778 291
-176.597297013 -20.9772853505 290
-178.2872233 -21.1780249233 289
-179.977149588 -21.378764496 288
-180.822112731 -21.4791342824 287
-181.667075875 -21.5795040687 286
-182.512039018 -21.6798738551 285
-184.201965306 -21.8806134278 284
-185.046928449 -21.9809832142 283
-186.736854737 -22.1817227869 282
-188.426781024 -22.3824623596 281
-188.426781024 -22.3824623596 280
-188.426781024 -22.3824623596 279
-189.271744167 -22.482832146 278
-190.961670455 -22.6835717187 277
-192.651596742 -22.8843112915 276
-192.651596742 -22.8843112915 275
-194.341523029 -23.0850508642 274
-195.186486173 -23.1854206506 273
-195.186486173 -23.1854206506 272
-195.186486173 -23.1854206506 271
-196.031449316 -23.2857904369 270
-197.721375603 -23.4865300097 269
-197.721375603 -23.4865300097 268
-199.411301891 -23.6872695824 267
-199.411301891 -23.6872695824 266
-201.101228178 -23.8880091551 265
-201.101228178 -23.8880091551 264
-201.946191321 -23.9883789415 263
-201.946191321 -23.9883789415 262
-202.791154465 -24.0887487279 261
-203.636117609 -24.1891185142 260
-203.636117609 -24.1891185142 259
-204.481080752 -24.2894883006 258
-204.481080752 -24.2894883006 257
-205.326043896 -24.389858087 256
-206.171007039 -24.4902278733 255
-206.171007039 -24.4902278733 254
-206.171007039 -24.4902278733 253
-207.015970183 -24.5905976597 252
-207.860933327 -24.6909674461 251
-207.860933327 -24.6909674461 250
-209.550859614 -24.8917070188 249
-209.550859614 -24.8917070188 248
-210.395822757 -24.9920768052 247
-211.240785901 -25.0924465915 246
-211.240785901 -25.0924465915 245
-212.085749045 -25.1928163779 244
-212.085749045 -25.1928163779 243
-212.085749045 -25.1928163779 242
-212.085749045 -25.1928163779 241
-212.085749045 -25.1928163779 240
-212.085749045 -25.1928163779 239
-213.775675332 -25.3935559506 238
-213.775675332 -25.3935559506 237
-213.775675332 -25.3935559506 236
-214.620638475 -25.493925737 235
-215.465601619 -25.5942955234 234
-215.465601619 -25.5942955234 233
-216.310564763 -25.6946653097 232
-216.310564763 -25.6946653097 231
-217.155527906 -25.7950350961 230
-217.155527906 -25.7950350961 229
-217.155527906 -25.7950350961 228
-218.00049105 -25.8954048825 227
-218.00049105 -25.8954048825 226
-218.00049105 -25.8954048825 225
-218.845454193 -25.9957746688 224
-218.845454193 -25.9957746688 223
-219.690417337 -26.0961444552 222
-220.535380481 -26.1965142416 221
-219.690417337 -26.0961444552 220
-219.690417337 -26.0961444552 219
-219.690417337 -26.0961444552 218
-220.535380481 -26.1965142416 217
-221.380343624 -26.2968840279 216
-221.380343624 -26.2968840279 215
-221.380343624 -26.2968840279 214
-221.380343624 -26.2968840279 213
-221.380343624 -26.2968840279 212
-221.380343624 -26.2968840279 211
-221.380343624 -26.2968840279 210
-222.225306768 -26.3972538143 209
-222.225306768 -26.3972538143 208
-222.225306768 -26.3972538143 207
-221.380343624 -26.2968840279 206
-222.225306768 -26.3972538143 205
-223.070269911 -26.4976236007 204
-223.070269911 -26.4976236007 203
-223.915233055 -26.597993387 202
-224.760196199 -26.6983631734 201
-223.070269911 -26.4976236007 200
-223.070269911 -26.4976236007 199
-223.915233055 -26.597993387 198
-223.915233055 -26.597993387 197
-223.915233055 -26.597993387 196
-223.070269911 -26.4976236007 195
-222.225306768 -26.3972538143 194
-223.070269911 -26.4976236007 193
209.100561827 28.4273615848 432
209.100561827 28.4273615848 431
209.943709254 28.5419880428 430
209.943709254 28.5419880428 429
209.100561827 28.4273615848 425
208.257414401 28.3127351268 424
209.100561827 28.4273615848 423
209.100561827 28.4273615848 422
209.100561827 28.4273615848 421
208.257414401 28.3127351268 416
208.257414401 28.3127351268 415
207.414266974 28.1981086688 414
207.414266974 28.1981086688 412
207.414266974 28.1981086688 411
206.571119547 28.0834822108 410
205.727972121 27.9688557528 409
205.727972121 27.9688557528 408
206.571119547 28.0834822108 406
206.571119547 28.0834822108 405
205.727972121 27.9688557528 404
205.727972121 27.9688557528 403
204.884824694 27.8542292948 402
204.884824694 27.8542292948 401
204.884824694 27.8542292948 400
204.884824694 27.8542292948 399
204.884824694 27.8542292948 398
204.884824694 27.8542292948 397
205.727972121 27.9688557528 396
204.884824694 27.8542292948 395
204.884824694 27.8542292948 394
204.884824694 27.8542292948 392
204.041677267 27.7396028368 391
204.041677267 27.7396028368 390
204.884824694 27.8542292948 389
204.041677267 27.7396028368 388
204.041677267 27.7396028368 387
204.041677267 27.7396028368 386
203.19852984 27.6249763788 385
202.355382414 27.5103499208 384
203.19852984 27.6249763788 383
202.355382414 27.5103499208 380
202.355382414 27.5103499208 377
202.355382414 27.5103499208 376
201.512234987 27.3957234627 375
200.66908756 27.2810970047 374
200.66908756 27.2810970047 373
199.825940133 27.1664705467 372
199.825940133 27.1664705467 371
200.66908756 27.2810970047 370
199.825940133 27.1664705467 369
200.66908756 27.2810970047 368
200.66908756 27.2810970047 367
200.66908756 27.2810970047 365
200.66908756 27.2810970047 364
199.825940133 27.1664705467 363
200.66908756 27.2810970047 361
199.825940133 27.1664705467 360
198.982792707 27.0518440887 359
198.982792707 27.0518440887 358
198.982792707 27.0518440887 357
198.982792707 27.0518440887 356
198.13964528 26.9372176307 353
197.296497853 26.8225911727 352
197.296497853 26.8225911727 351
197.296497853 26.8225911727 350
197.296497853 26.8225911727 349
196.453350427 26.7079647147 348
196.453350427 26.7079647147 347
197.296497853 26.8225911727 346
197.296497853 26.8225911727 345
196.453350427 26.7079647147 344
196.453350427 26.7079647147 343
196.453350427 26.7079647147 342
195.610203 26.5933382567 341
196.453350427 26.7079647147 340
196.453350427 26.7079647147 339
196.453350427 26.7079647147 338
195.610203 26.5933382567 337
195.610203 26.5933382567 336
195.610203 26.5933382567 335
195.610203 26.5933382567 334
195.610203 26.5933382567 333
195.610203 26.5933382567 332
195.610203 26.5933382567 331
194.767055573 26.4787117987 330
194.767055573 26.4787117987 329
194.767055573 26.4787117987 328
193.923908146 26.3640853407 327
193.923908146 26.3640853407 326
193.08076072 26.2494588827 325
193.923908146 26.3640853407 324
193.923908146 26.3640853407 323
193.08076072 26.2494588827 322
193.08076072 26.2494588827 321
193.923908146 26.3640853407 320
193.08076072 26.2494588827 319
192.237613293 26.1348324247 318
191.394465866 26.0202059667 317
192.237613293 26.1348324247 316
191.394465866 26.0202059667 315
191.394465866 26.0202059667 314
191.394465866 26.0202059667 313
191.394465866 26.0202059667 312
191.394465866 26.0202059667 311
190.551318439 25.9055795087 310
190.551318439 25.9055795087 309
189.708171013 25.7909530507 308
-145.021357396 -19.7157507765 307
-148.393947103 -20.1742566086 306
-151.76653681 -20.6327624406 305
-154.29597909 -20.9766418146 304
-156.825421371 -21.3205211886 303
-159.354863651 -21.6644005626 302
-161.041158504 -21.8936534786 301
-161.884305931 -22.0082799366 300
-163.570600784 -22.2375328526 299
-166.100043065 -22.5814122266 298
-167.786337918 -22.8106651426 297
-169.472632771 -23.0399180586 296
-171.158927625 -23.2691709746 295
-172.845222478 -23.4984238906 294
-174.531517332 -23.7276768066 293
-175.374664758 -23.8423032647 292
-177.060959612 -24.0715561807 291
-177.904107039 -24.1861826387 290
-179.590401892 -24.4154355547 289
-180.433549319 -24.5300620127 288
-181.276696746 -24.6446884707 287
-182.119844172 -24.7593149287 286
-182.962991599 -24.8739413867 285
-184.649286452 -25.1031943027 284
-186.335581306 -25.3324472187 283
-187.178728733 -25.4470736767 282
-188.021876159 -25.5617001347 281
-188.865023586 -25.6763265927 280
-189.708171013 -25.7909530507 279
-190.551318439 -25.9055795087 278
-192.237613293 -26.1348324247 277
-193.08076072 -26.2494588827 276
-193.923908146 -26.3640853407 275
-193.923908146 -26.3640853407 274
-194.767055573 -26.4787117987 273
-195.610203 -26.5933382567 272
-195.610203 -26.5933382567 271
-197.296497853 -26.8225911727 270
-198.982792707 -27.0518440887 269
-198.982792707 -27.0518440887 268
-199.825940133 -27.1664705467 267
-200.66908756 -27.2810970047 266
-200.66908756 -27.2810970047 265
-200.66908756 -27.2810970047 264
-202.355382414 -27.5103499208 263
-203.19852984 -27.6249763788 262
-203.19852984 -27.6249763788 261
-203.19852984 -27.6249763788 260
-204.884824694 -27.8542292948 259
-205.727972121 -27.9688557528 258
-205.727972121 -27.9688557528 257
-205.727972121 -27.9688557528 256
-206.571119547 -28.0834822108 255
-206.571119547 -28.0834822108 254
-207.414266974 -28.1981086688 253
-208.257414401 -28.3127351268 252
-209.100561827 -28.4273615848 251
-209.100561827 -28.4273615848 250
-209.943709254 -28.5419880428 249
-210.786856681 -28.6566145008 248
-210.786856681 -28.6566145008 247
-211.630004108 -28.7712409588 246
-211.630004108 -28.7712409588 245
-211.630004108 -28.7712409588 244
-211.630004108 -28.7712409588 243
-211.630004108 -28.7712409588 242
-213.316298961 -29.0004938748 241
-213.316298961 -29.0004938748 240
-213.316298961 -29.0004938748 239
-214.159446388 -29.1151203328 238
-215.002593814 -29.2297467908 237
-215.002593814 -29.2297467908 236
-215.845741241 -29.3443732488 235
-215.845741241 -29.3443732488 234
-216.688888668 -29.4589997068 233
-216.688888668 -29.4589997068 232
-217.532036095 -29.5736261648 231
-217.532036095 -29.5736261648 230
-217.532036095 -29.5736261648 229
-217.532036095 -29.5736261648 228
-217.532036095 -29.5736261648 227
-217.532036095 -29.5736261648 226
-219.218330948 -29.8028790808 225
-220.061478375 -29.9175055388 224
-220.061478375 -29.9175055388 223
-220.061478375 -29.9175055388 222
-220.061478375 -29.9175055388 221
-220.061478375 -29.9175055388 220
-220.904625802 -30.0321319968 219
-220.904625802 -30.0321319968 218
-221.747773228 -30.1467584548 217
-221.747773228 -30.1467584548 216
-220.904625802 -30.0321319968 215
-220.904625802 -30.0321319968 214
-220.904625802 -30.0321319968 213
-221.747773228 -30.1467584548 212
-221.747773228 -30.1467584548 211
-220.904625802 -30.0321319968 210
-220.904625802 -30.0321319968 209
-220.904625802 -30.0321319968 208
-220.904625802 -30.0321319968 207
-221.747773228 -30.1467584548 206
-222.590920655 -30.2613849128 205
-223.434068082 -30.3760113708 204
-223.434068082 -30.3760113708 203
-224.277215508 -30.4906378288 202
-224.277215508 -30.4906378288 201
-224.277215508 -30.4906378288 200
-224.277215508 -30.4906378288 199
-224.277215508 -30.4906378288 198
-224.277215508 -30.4906378288 197
-224.277215508 -30.4906378288 196
-224.277215508 -30.4906378288 195
-223.434068082 -30.3760113708 194
-223.434068082 -30.3760113708 193
208.590612903 31.9549065386 431
209.431704084 32.0837569682 430
209.431704084 32.0837569682 429
208.590612903 31.9549065386 428
206.908430541 31.6972056794 425
208.590612903 31.9549065386 423
208.590612903 31.9549065386 422
206.908430541 31.6972056794 419
206.908430541 31.6972056794 417
206.908430541 31.6972056794 416
206.908430541 31.6972056794 415
206.06733936 31.5683552498 414
206.06733936 31.5683552498 413
206.06733936 31.5683552498 412
206.06733936 31.5683552498 411
206.06733936 31.5683552498 410
205.226248179 31.4395048202 409
205.226248179 31.4395048202 408
205.226248179 31.4395048202 407
205.226248179 31.4395048202 405
205.226248179 31.4395048202 404
206.06733936 31.5683552498 403
204.385156998 31.3106543906 402
204.385156998 31.3106543906 400
203.544065817 31.181803961 399
204.385156998 31.3106543906 398
204.385156998 31.3106543906 397
204.385156998 31.3106543906 395
204.385156998 31.3106543906 394
202.702974636 31.0529535314 391
202.702974636 31.0529535314 390
203.544065817 31.181803961 389
203.544065817 31.181803961 388
203.544065817 31.181803961 387
201.861883455 30.9241031018 385
202.702974636 31.0529535314 384
203.544065817 31.181803961 383
201.020792274 30.7952526723 382
201.861883455 30.9241031018 381
201.861883455 30.9241031018 380
201.020792274 30.7952526723 379
201.020792274 30.7952526723 378
201.861883455 30.9241031018 377
201.861883455 30.9241031018 376
200.179701093 30.6664022427 374
201.020792274 30.7952526723 373
200.179701093 30.6664022427 372
199.338609911 30.5375518131 371
200.179701093 30.6664022427 370
201.020792274 30.7952526723 369
199.338609911 30.5375518131 368
200.179701093 30.6664022427 367
200.179701093 30.6664022427 366
199.338609911 30.5375518131 365
199.338609911 30.5375518131 364
199.338609911 30.5375518131 363
198.49751873 30.4087013835 362
199.338609911 30.5375518131 360
199.338609911 30.5375518131 359
198.49751873 30.4087013835 358
198.49751873 30.4087013835 357
197.656427549 30.2798509539 356
198.49751873 30.4087013835 355
199.338609911 30.5375518131 354
198.49751873 30.4087013835 353
196.815336368 30.1510005243 352
196.815336368 30.1510005243 351
197.656427549 30.2798509539 350
195.974245187 30.0221500947 348
195.974245187 30.0221500947 347
196.815336368 30.1510005243 346
196.815336368 30.1510005243 345
195.974245187 30.0221500947 344
196.815336368 30.1510005243 343
196.815336368 30.1510005243 342
195.974245187 30.0221500947 341
195.974245187 30.0221500947 340
195.974245187 30.0221500947 339
195.974245187 30.0221500947 338
195.974245187 30.0221500947 337
195.974245187 30.0221500947 336
195.133154006 29.8932996651 335
195.133154006 29.8932996651 334
195.133154006 29.8932996651 333
195.133154006 29.8932996651 332
194.292062825 29.7644492355 331
193.450971644 29.6355988059 330
194.292062825 29.7644492355 329
194.292062825 29.7644492355 328
192.609880463 29.5067483763 327
194.292062825 29.7644492355 326
193.450971644 29.6355988059 325
193.450971644 29.6355988059 324
193.450971644 29.6355988059 323
193.450971644 29.6355988059 322
192.609880463 29.5067483763 321
192.609880463 29.5067483763 320
191.768789282 29.3778979468 319
191.768789282 29.3778979468 318
191.768789282 29.3778979468 317
191.768789282 29.3778979468 316
191.768789282 29.3778979468 315
190.927698101 29.2490475172 314
190.927698101 29.2490475172 313
190.927698101 29.2490475172 312
190.927698101 29.2490475172 311
190.08660692 29.1201970876 310
190.927698101 29.2490475172 309
-143.826591961 -22.0334234601 308
-148.032047867 -22.677675608 307
-151.396412591 -23.1930773264 306
-153.078594953 -23.4507781856 305
-154.760777315 -23.7084790447 304
-158.125142039 -24.2238807631 303
-159.807324402 -24.4815816223 302
-161.489506764 -24.7392824815 301
-164.012780307 -25.1258337702 300
-165.694962669 -25.3835346294 299
-167.377145031 -25.6412354886 298
-169.059327393 -25.8989363478 297
-171.582600936 -26.2854876366 296
-172.423692118 -26.4143380662 295
-173.264783299 -26.5431884957 294
-174.10587448 -26.6720389253 293
-174.946965661 -26.8008893549 292
-177.470239204 -27.1874406437 291
-179.152421566 -27.4451415029 290
-180.834603928 -27.7028423621 289
-180.834603928 -27.7028423621 288
-182.51678629 -27.9605432212 287
-183.357877471 -28.0893936508 286
-184.198968652 -28.2182440804 285
-186.722242196 -28.6047953692 284
-187.563333377 -28.7336457988 283
-188.404424558 -28.8624962284 282
-188.404424558 -28.8624962284 281
-189.245515739 -28.991346658 280
-190.08660692 -29.1201970876 279
-190.927698101 -29.2490475172 278
-191.768789282 -29.3778979468 277
-193.450971644 -29.6355988059 276
-194.292062825 -29.7644492355 275
-195.133154006 -29.8932996651 274
-195.133154006 -29.8932996651 273
-195.974245187 -30.0221500947 272
-196.815336368 -30.1510005243 271
-197.656427549 -30.2798509539 270
-198.49751873 -30.4087013835 269
-199.338609911 -30.5375518131 268
-200.179701093 -30.6664022427 267
-200.179701093 -30.6664022427 266
-201.020792274 -30.7952526723 265
-201.861883455 -30.9241031018 264
-202.702974636 -31.0529535314 263
-202.702974636 -31.0529535314 262
-203.544065817 -31.181803961 261
-204.385156998 -31.3106543906 260
-204.385156998 -31.3106543906 259
-206.06733936 -31.5683552498 258
-206.06733936 -31.5683552498 257
-206.06733936 -31.5683552498 256
-206.908430541 -31.6972056794 255
-207.749521722 -31.826056109 254
-207.749521722 -31.826056109 253
-208.590612903 -31.9549065386 252
-208.590612903 -31.9549065386 251
-209.431704084 -32.0837569682 250
-210.272795265 -32.2126073978 249
-210.272795265 -32.2126073978 248
-211.113886446 -32.3414578273 247
-211.113886446 -32.3414578273 246
-211.113886446 -32.3414578273 245
-211.113886446 -32.3414578273 244
-211.113886446 -32.3414578273 243
-211.954977627 -32.4703082569 242
-212.796068808 -32.5991586865 241
-213.63715999 -32.7280091161 240
-214.478251171 -32.8568595457 239
-214.478251171 -32.8568595457 238
-214.478251171 -32.8568595457 237
-215.319342352 -32.9857099753 236
-216.160433533 -33.1145604049 235
-216.160433533 -33.1145604049 234
-217.001524714 -33.2434108345 233
-217.001524714 -33.2434108345 232
-217.001524714 -33.2434108345 231
-217.842615895 -33.3722612641 230
-217.001524714 -33.2434108345 229
-217.842615895 -33.3722612641 228
-217.842615895 -33.3722612641 227
-217.842615895 -33.3722612641 226
-218.683707076 -33.5011116937 225
-218.683707076 -33.5011116937 224
-219.524798257 -33.6299621233 223
-219.524798257 -33.6299621233 222
-219.524798257 -33.6299621233 221
-219.524798257 -33.6299621233 220
-220.365889438 -33.7588125528 219
-220.365889438 -33.7588125528 218
-220.365889438 -33.7588125528 217
-221.206980619 -33.8876629824 216
-221.206980619 -33.8876629824 215
-221.206980619 -33.8876629824 214
-221.206980619 -33.8876629824 213
-221.206980619 -33.8876629824 212
-221.206980619 -33.8876629824 211
-221.206980619 -33.8876629824 210
-221.206980619 -33.8876629824 209
-221.206980619 -33.8876629824 208
-221.206980619 -33.8876629824 207
-222.0480718 -34.016513412 206
-222.0480718 -34.016513412 205
-223.730254162 -34.2742142712 204
-223.730254162 -34.2742142712 203
-223.730254162 -34.2742142712 202
-223.730254162 -34.2742142712 201
-223.730254162 -34.2742142712 200
-223.730254162 -34.2742142712 199
-223.730254162 -34.2742142712 198
-223.730254162 -34.2742142712 197
-223.730254162 -34.2742142712 196
-223.730254162 -34.2742142712 195
-223.730254162 -34.2742142712 194
-222.889162981 -34.1453638416 193
208.021158317 35.4733355602 432
208.021158317 35.4733355602 431
208.85995331 35.6163732036 430
208.85995331 35.6163732036 429
208.021158317 35.4733355602 425
207.182363324 35.3302979168 423
208.021158317 35.4733355602 422
207.182363324 35.3302979168 421
206.34356833 35.1872602734 416
207.182363324 35.3302979168 415
205.504773337 35.0442226301 414
205.504773337 35.0442226301 413
205.504773337 35.0442226301 412
207.182363324 35.3302979168 411
205.504773337 35.0442226301 410
205.504773337 35.0442226301 409
205.504773337 35.0442226301 408
204.665978344 34.9011849867 407
205.504773337 35.0442226301 406
205.504773337 35.0442226301 405
204.665978344 34.9011849867 404
204.665978344 34.9011849867 403
204.665978344 34.9011849867 402
203.827183351 34.7581473433 401
202.988388357 34.6151096999 400
203.827183351 34.7581473433 399
203.827183351 34.7581473433 398
203.827183351 34.7581473433 397
203.827183351 34.7581473433 396
203.827183351 34.7581473433 395
203.827183351 34.7581473433 394
202.988388357 34.6151096999 392
202.149593364 34.4720720565 391
202.149593364 34.4720720565 390
202.988388357 34.6151096999 389
202.988388357 34.6151096999 388
203.827183351 34.7581473433 387
203.827183351 34.7581473433 386
202.149593364 34.4720720565 385
202.149593364 34.4720720565 384
202.988388357 34.6151096999 383
200.472003378 34.1859967697 381
201.310798371 34.3290344131 380
201.310798371 34.3290344131 377
201.310798371 34.3290344131 376
199.633208385 34.0429591263 373
198.794413391 33.899921483 372
198.794413391 33.899921483 371
199.633208385 34.0429591263 370
199.633208385 34.0429591263 369
198.794413391 33.899921483 368
198.794413391 33.899921483 367
198.794413391 33.899921483 366
200.472003378 34.1859967697 365
199.633208385 34.0429591263 364
199.633208385 34.0429591263 363
197.955618398 33.7568838396 362
199.633208385 34.0429591263 361
198.794413391 33.899921483 360
197.955618398 33.7568838396 359
197.955618398 33.7568838396 358
197.955618398 33.7568838396 357
197.955618398 33.7568838396 356
197.116823405 33.6138461962 353
196.278028412 33.4708085528 352
195.439233419 33.3277709094 351
196.278028412 33.4708085528 350
196.278028412 33.4708085528 349
195.439233419 33.3277709094 348
195.439233419 33.3277709094 347
196.278028412 33.4708085528 346
195.439233419 33.3277709094 345
195.439233419 33.3277709094 344
196.278028412 33.4708085528 343
196.278028412 33.4708085528 342
194.600438425 33.184733266 341
195.439233419 33.3277709094 340
195.439233419 33.3277709094 339
195.439233419 33.3277709094 338
194.600438425 33.184733266 337
194.600438425 33.184733266 336
194.600438425 33.184733266 335
194.600438425 33.184733266 334
194.600438425 33.184733266 333
194.600438425 33.184733266 332
194.600438425 33.184733266 331
193.761643432 33.0416956226 330
193.761643432 33.0416956226 329
193.761643432 33.0416956226 328
193.761643432 33.0416956226 327
192.922848439 32.8986579792 326
192.084053446 32.7556203358 325
192.922848439 32.8986579792 324
192.922848439 32.8986579792 323
192.084053446 32.7556203358 322
192.084053446 32.7556203358 321
192.084053446 32.7556203358 320
191.245258452 32.6125826925 319
191.245258452 32.6125826925 318
191.245258452 32.6125826925 317
191.245258452 32.6125826925 316
191.245258452 32.6125826925 315
190.406463459 32.4695450491 314
190.406463459 32.4695450491 313
190.406463459 32.4695450491 312
189.567668466 32.3265074057 311
189.567668466 32.3265074057 310
-143.433943839 -24.4594370193 309
189.567668466 32.3265074057 308
-150.983098778 -25.7467758098 307
-153.499483758 -26.17588874 306
-156.015868738 -26.6050016702 305
-157.693458724 -26.8910769569 304
-160.209843704 -27.3201898871 303
-161.88743369 -27.6062651739 302
-164.40381867 -28.035378104 301
-166.081408656 -28.3214533908 300
-166.920203649 -28.4644910342 299
-169.436588629 -28.8936039644 298
-171.114178615 -29.1796792511 297
-172.791768602 -29.4657545379 296
-173.630563595 -29.6087921813 295
-175.308153581 -29.8948674681 294
-176.985743568 -30.1809427549 293
-178.663333554 -30.4670180416 292
-179.502128548 -30.610055685 291
-180.340923541 -30.7530933284 290
-180.340923541 -30.7530933284 289
-182.85730852 -31.1822062586 288
-184.534898507 -31.4682815454 287
-185.3736935 -31.6113191887 286
-186.212488493 -31.7543568321 285
-187.051283486 -31.8973944755 284
-187.89007848 -32.0404321189 283
-189.567668466 -32.3265074057 282
-189.567668466 -32.3265074057 281
-191.245258452 -32.6125826925 280
-192.084053446 -32.7556203358 279
-192.922848439 -32.8986579792 278
-192.922848439 -32.8986579792 277
-194.600438425 -33.184733266 276
-194.600438425 -33.184733266 275
-195.439233419 -33.3277709094 274
-196.278028412 -33.4708085528 273
-197.116823405 -33.6138461962 272
-198.794413391 -33.899921483 271
-198.794413391 -33.899921483 270
-199.633208385 -34.0429591263 269
-200.472003378 -34.1859967697 268
-201.310798371 -34.3290344131 267
-201.310798371 -34.3290344131 266
-202.149593364 -34.4720720565 265
-202.149593364 -34.4720720565 264
-203.827183351 -34.7581473433 263
-203.827183351 -34.7581473433 262
-205.504773337 -35.0442226301 261
-205.504773337 -35.0442226301 260
-205.504773337 -35.0442226301 259
-206.34356833 -35.1872602734 258
-207.182363324 -35.3302979168 257
-207.182363324 -35.3302979168 256
-208.021158317 -35.4733355602 255
-208.85995331 -35.6163732036 254
-208.85995331 -35.6163732036 253
-209.698748303 -35.759410847 252
-209.698748303 -35.759410847 251
-209.698748303 -35.759410847 250
-210.537543296 -35.9024484904 249
-211.37633829 -36.0454861338 248
-211.37633829 -36.0454861338 247
-211.37633829 -36.0454861338 246
-212.215133283 -36.1885237772 245
-212.215133283 -36.1885237772 244
-212.215133283 -36.1885237772 243
-213.892723269 -36.4745990639 242
-213.892723269 -36.4745990639 241
-215.570313256 -36.7606743507 240
-215.570313256 -36.7606743507 239
-215.570313256 -36.7606743507 238
-216.409108249 -36.9037119941 237
-216.409108249 -36.9037119941 236
-216.409108249 -36.9037119941 235
-216.409108249 -36.9037119941 234
-217.247903242 -37.0467496375 233
-217.247903242 -37.0467496375 232
-218.086698235 -37.1897872809 231
-218.086698235 -37.1897872809 230
-218.086698235 -37.1897872809 229
-218.086698235 -37.1897872809 228
-218.925493228 -37.3328249243 227
-218.925493228 -37.3328249243 226
-219.764288222 -37.4758625677 225
-219.764288222 -37.4758625677 224
-220.603083215 -37.618900211 223
-220.603083215 -37.618900211 222
-219.764288222 -37.4758625677 221
-219.764288222 -37.4758625677 220
-221.441878208 -37.7619378544 219
-221.441878208 -37.7619378544 218
-221.441878208 -37.7619378544 217
-221.441878208 -37.7619378544 216
-220.603083215 -37.618900211 215
-220.603083215 -37.618900211 214
-221.441878208 -37.7619378544 213
-221.441878208 -37.7619378544 212
-220.603083215 -37.618900211 211
-221.441878208 -37.7619378544 210
-221.441878208 -37.7619378544 209
-222.280673201 -37.9049754978 208
-221.441878208 -37.7619378544 207
-222.280673201 -37.9049754978 206
-223.119468195 -38.0480131412 205
-223.958263188 -38.1910507846 204
-223.958263188 -38.1910507846 203
-224.797058181 -38.334088428 202
-224.797058181 -38.334088428 201
-225.635853174 -38.4771260714 200
-225.635853174 -38.4771260714 199
-225.635853174 -38.4771260714 198
-224.797058181 -38.334088428 197
-224.797058181 -38.334088428 196
-224.797058181 -38.334088428 195
-224.797058181 -38.334088428 194
-224.797058181 -38.334088428 193
207.392360519 38.9816449303 432
207.392360519 38.9816449303 431
208.228620037 39.1388289824 430
208.228620037 39.1388289824 429
205.719841483 38.667276826 428
206.556101001 38.8244608782 425
206.556101001 38.8244608782 423
207.392360519 38.9816449303 422
206.556101001 38.8244608782 421
206.556101001 38.8244608782 416
205.719841483 38.667276826 415
205.719841483 38.667276826 414
204.883581965 38.5100927739 413
204.883581965 38.5100927739 412
204.883581965 38.5100927739 411
204.883581965 38.5100927739 410
204.883581965 38.5100927739 409
204.047322446 38.3529087217 408
204.883581965 38.5100927739 407
204.883581965 38.5100927739 406
204.047322446 38.3529087217 405
204.047322446 38.3529087217 404
204.047322446 38.3529087217 403
204.047322446 38.3529087217 402
203.211062928 38.1957246696 401
202.37480341 38.0385406175 400
203.211062928 38.1957246696 399
203.211062928 38.1957246696 398
203.211062928 38.1957246696 397
203.211062928 38.1957246696 396
203.211062928 38.1957246696 395
203.211062928 38.1957246696 394
202.37480341 38.0385406175 392
201.538543892 37.8813565653 391
