-43.3080720284 -10.4360383856 298
-45.3703611726 -10.9329925944 295
92.1155817746 22.1972879947 292
87.9910034862 21.2033795771 289
85.2412846273 20.5407739653 286
125.799637797 30.3142067391 283
118.925340649 28.6576927096 280
126.487067511 30.479858142 277
141.610521236 34.1241890068 274
137.485942947 33.1302805892 271
145.047669809 34.9524460216 268
-13.7485942947 -3.31302805892 265
-23.372610301 -5.63214770016 262
-76.9921280504 -18.5529571299 259
-80.4292766241 -19.3812141447 256
-84.5538549125 -20.3751225623 253
-87.9910034862 -21.2033795771 250
-92.8030114894 -22.3629393977 247
-96.9275897778 -23.3568478154 244
-101.052168066 -24.350756233 241
-105.864176069 -25.5103160537 238
-110.676184073 -26.6698758743 235
-115.488192076 -27.8294356949 232
-119.612770364 -28.8233441126 229
-103.801886925 -25.0133618448 226
-116.863051505 -28.1607385008 223
-120.300200079 -28.9889955155 220
-122.362489223 -29.4859497244 217
-123.049918938 -29.6516011273 214
-124.424778367 -29.9829039332 211
-125.799637797 -30.3142067391 208
-127.174497226 -30.645509545 205
-127.861926941 -30.8111609479 202
-129.23678637 -31.1424637538 199
-130.6116458 -31.4737665597 196
-131.986505229 -31.8050693656 193
-133.361364659 -32.1363721715 190
-132.673934944 -31.9707207685 187
-132.673934944 -31.9707207685 184
-132.673934944 -31.9707207685 181
-131.986505229 -31.8050693656 178
-131.986505229 -31.8050693656 175
-131.299075515 -31.6394179626 172
-131.299075515 -31.6394179626 169
-131.299075515 -31.6394179626 166
-131.299075515 -31.6394179626 163
-129.924216085 -31.3081151568 160
-130.6116458 -31.4737665597 157
-129.924216085 -31.3081151568 154
-115.488192076 -27.8294356949 148
-114.800762361 -27.6637842919 145
-37.1212045957 -8.94517575907 139
-39.8709234547 -9.60778137086 136
-41.2457828842 -9.93908417675 133
-19.9354617273 -4.80389068543 130
-45.3703611726 -10.9329925944 127
-118.237910935 -28.4920413067 124
39.18349374 9.44212996791 118
-123.049918938 -29.6516011273 115
-125.112208082 -30.1485553361 112
-125.799637797 -30.3142067391 109
-363.650319095 -87.6295921583 106
-366.400037954 -88.2921977701 103
-370.524616243 -89.2861061878 100
-134.048794374 -32.3020235744 88
-134.736224088 -32.4676749774 85
-135.423653803 -32.6333263803 82
-135.423653803 -32.6333263803 79
-135.423653803 -32.6333263803 76
-135.423653803 -32.6333263803 73
-134.048794374 -32.3020235744 70
-134.048794374 -32.3020235744 67
-127.861926941 -30.8111609479 64
-127.861926941 -30.8111609479 61
107.471821588 27.8263825292 370
106.787287692 27.6491444239 367
106.102753797 27.4719063187 364
106.102753797 27.4719063187 361
104.733686006 27.1174301081 358
104.733686006 27.1174301081 355
104.733686006 27.1174301081 352
104.733686006 27.1174301081 349
104.733686006 27.1174301081 346
104.733686006 27.1174301081 343
103.364618215 26.7629538975 340
103.364618215 26.7629538975 337
102.680084319 26.5857157923 334
101.995550424 26.408477687 331
101.995550424 26.408477687 328
101.311016528 26.2312395817 325
99.9419487374 25.8767633711 322
99.9419487374 25.8767633711 319
99.257414842 25.6995252658 316
99.257414842 25.6995252658 313
99.257414842 25.6995252658 310
98.5728809465 25.5222871606 307
-35.595762564 -9.21638147465 304
-38.3338981459 -9.92533389578 301
-43.1256354141 -11.1660006327 298
-45.1792371005 -11.6977149486 295
98.5728809465 25.5222871606 292
86.9358047237 22.5092393708 289
84.1976691418 21.8002869497 286
84.1976691418 21.8002869497 283
117.055296124 30.3077160032 280
136.222245197 35.2703829511 277
141.013982465 36.511049688 274
145.121185838 37.5744783197 271
145.121185838 37.5744783197 268
-7.52987285008 -1.9496191581 265
-19.8514829684 -5.13990505317 262
-76.6677962917 -19.8506677916 259
-80.090465769 -20.736858318 256
-83.5131352463 -21.6230488444 253
-86.9358047237 -22.5092393708 250
-92.4120758873 -23.927144213 247
-95.8347453647 -24.8133347394 244
-99.257414842 -25.6995252658 241
-105.418219901 -27.2946682134 238
-110.209957169 -28.5353349504 235
-115.001694438 -29.7760016873 232
-119.10889781 -30.839430319 229
-120.477965601 -31.1939065296 226
-116.370762229 -30.1304778979 223
-119.10889781 -30.839430319 220
-122.531567288 -31.7256208454 217
-123.216101183 -31.9028589507 214
-124.585168974 -32.2573351613 211
-126.63877066 -32.7890494771 208
-124.585168974 -32.2573351613 205
-128.007838451 -33.1435256877 202
-128.692372347 -33.320763793 199
-130.061440138 -33.6752400035 196
-131.430507929 -34.0297162141 193
-132.79957572 -34.3841924247 190
-132.115041824 -34.2069543194 187
-132.115041824 -34.2069543194 184
-132.115041824 -34.2069543194 181
-131.430507929 -34.0297162141 178
-131.430507929 -34.0297162141 175
-130.745974033 -33.8524781088 172
-130.745974033 -33.8524781088 169
-130.745974033 -33.8524781088 166
-130.745974033 -33.8524781088 163
-130.745974033 -33.8524781088 160
-130.061440138 -33.6752400035 157
-129.376906242 -33.4980018982 154
-115.001694438 -29.7760016873 148
-114.317160542 -29.598763582 145
-36.2802964595 -9.39361957993 139
-39.7029659368 -10.2798101063 136
-41.7565676232 -10.8115244222 133
-19.1669490729 -4.96266694789 130
-44.494703205 -11.5204768433 127
-117.739830019 -30.4849541085 124
-119.793431706 -31.0166684243 121
38.3338981459 9.92533389578 118
-122.531567288 -31.7256208454 115
-124.585168974 -32.2573351613 112
-124.585168974 -32.2573351613 109
-125.954236765 -32.6118113718 106
-366.225634072 -94.8223863257 103
-367.594701863 -95.1768625363 100
-397.029659368 -102.798101063 97
-132.79957572 -34.3841924247 88
-134.168643511 -34.7386686352 85
-134.853177406 -34.9159067405 82
-134.853177406 -34.9159067405 79
-134.853177406 -34.9159067405 76
-134.853177406 -34.9159067405 73
-133.484109615 -34.5614305299 70
-133.484109615 -34.5614305299 67
-127.323304556 -32.9662875824 64
-126.63877066 -32.7890494771 61
106.98651895 29.637556628 370
106.305076155 29.448782382 367
105.623633359 29.2600081359 364
105.623633359 29.2600081359 361
104.942190563 29.0712338899 358
104.260747767 28.8824596439 355
104.260747767 28.8824596439 352
104.260747767 28.8824596439 349
104.260747767 28.8824596439 346
104.260747767 28.8824596439 343
102.897862175 28.5049111518 340
102.897862175 28.5049111518 337
102.216419379 28.3161369057 334
101.534976583 28.1273626597 331
101.534976583 28.1273626597 328
100.853533788 27.9385884137 325
99.4906481959 27.5610399216 322
99.4906481959 27.5610399216 319
98.8092054 27.3722656756 316
98.8092054 27.3722656756 313
98.8092054 27.3722656756 310
98.1277626042 27.1834914295 307
-34.753582589 -9.62748654795 304
-38.1607965683 -10.5713577781 301
-42.9308961393 -11.8927775004 298
-45.6566673228 -12.6478744846 295
82.4545782993 22.8416837706 292
87.2246778704 24.1631034929 289
85.8617922787 23.7855550008 286
84.4989066869 23.4080065088 283
119.933932072 33.2242673027 280
135.607116377 37.5660749616 277
140.377215948 38.8874946839 274
144.465872723 40.0201401601 271
143.102987131 39.642591668 268
-5.4515423669 -1.51019396831 265
-14.3102987131 -3.9642591668 262
-76.3215931366 -21.1427155563 259
-80.4102499118 -22.2753610325 256
-83.1360210952 -23.0304580167 253
-87.2246778704 -24.1631034929 250
-90.6318918497 -25.1069747231 247
-94.039105829 -26.0508459533 244
-98.1277626042 -27.1834914295 241
-102.897862175 -28.5049111518 238
-109.030847338 -30.2038793661 235
-113.119504113 -31.3365248424 232
-117.889603684 -32.6579445646 229
-120.615374868 -33.4130415488 226
-124.704031643 -34.545687025 223
-110.39373293 -30.5814278582 220
-121.978260459 -33.7905900409 217
-121.978260459 -33.7905900409 214
-124.704031643 -34.545687025 211
-124.022588847 -34.356912779 208
-125.385474439 -34.7344612711 205
-125.385474439 -34.7344612711 202
-127.429802826 -35.3007840092 199
-128.111245622 -35.4895582552 196
-130.15557401 -36.0558809933 193
-132.199902397 -36.6222037314 190
-132.199902397 -36.6222037314 187
-132.199902397 -36.6222037314 184
-132.199902397 -36.6222037314 181
-131.518459601 -36.4334294854 178
-130.837016806 -36.2446552394 175
-130.837016806 -36.2446552394 172
-130.15557401 -36.0558809933 169
-130.15557401 -36.0558809933 166
-130.15557401 -36.0558809933 163
-130.15557401 -36.0558809933 160
-130.15557401 -36.0558809933 157
-129.474131214 -35.8671067473 154
-113.119504113 -31.3365248424 148
-113.119504113 -31.3365248424 145
-36.7979109766 -10.1938092861 139
-39.52368216 -10.9489062702 136
-39.52368216 -10.9489062702 133
-19.76184108 -5.47445313511 130
-43.6123389352 -12.0815517465 127
-117.208160888 -32.4691703186 124
-119.252489276 -33.0354930567 121
34.0721397931 9.43871230192 118
-121.296817663 -33.6018157948 115
-124.022588847 -34.356912779 112
-124.704031643 -34.545687025 109
-125.385474439 -34.7344612711 106
-125.385474439 -34.7344612711 103
-125.385474439 -34.7344612711 100
-126.74836003 -35.1120097631 97
-126.74836003 -35.1120097631 94
-128.111245622 -35.4895582552 91
-130.15557401 -36.0558809933 88
-132.199902397 -36.6222037314 85
-133.562787989 -36.9997522235 82
-134.244230785 -37.1885264695 79
-134.244230785 -37.1885264695 76
-134.244230785 -37.1885264695 73
-132.881345193 -36.8109779775 70
-132.881345193 -36.8109779775 67
-126.74836003 -35.1120097631 64
-126.066917235 -34.9232355171 61
106.470695747 31.4402758764 370
105.114381151 31.0397628079 367
105.114381151 31.0397628079 364
105.114381151 31.0397628079 361
103.758066556 30.6392497394 358
103.758066556 30.6392497394 355
103.758066556 30.6392497394 352
103.758066556 30.6392497394 349
103.758066556 30.6392497394 346
103.758066556 30.6392497394 343
102.40175196 30.2387366709 340
102.40175196 30.2387366709 337
101.723594663 30.0384801367 334
101.045437365 29.8382236024 331
101.045437365 29.8382236024 328
100.367280067 29.6379670682 325
99.0109654716 29.2374539997 322
99.0109654716 29.2374539997 319
98.3328081738 29.0371974654 316
98.3328081738 29.0371974654 313
98.3328081738 29.0371974654 310
97.6546508761 28.8369409312 307
-33.9078648875 -10.0128267122 304
-37.976808674 -11.2143659177 301
-42.7239097583 -12.6161616574 298
-46.114696247 -13.6174443286 295
84.0915049211 24.8318102463 292
88.8386060053 26.233605986 289
86.1259768143 25.432579849 286
84.7696622188 25.0320667806 283
118.677527106 35.0448934928 280
126.137257382 37.2477153695 277
141.056717932 41.6533591228 274
142.413032528 42.0538721913 271
145.125661719 42.8548983283 268
2.03447189325 0.600769602733 265
-12.8849886573 -3.80487415064 262
-21.701033528 -6.40820909582 259
-80.0225611346 -23.6302710408 256
-61.7123140953 -18.2233446162 253
-63.7467859886 -18.824114219 250
-89.5167633031 -26.4338625203 247
-93.5857070896 -27.6354017257 244
-96.9764935783 -28.636684397 241
-101.723594663 -30.0384801367 238
-107.827010342 -31.8407889449 235
-112.574111427 -33.2425846846 232
-115.964897915 -34.2438673558 229
-119.355684404 -35.245150027 226
-124.102785488 -36.6469457667 223
-125.459100084 -37.0474588352 220
-111.895954129 -33.0423281503 217
-122.068313595 -36.046176164 214
-124.102785488 -36.6469457667 211
-124.102785488 -36.6469457667 208
-124.780942786 -36.847202301 205
-124.102785488 -36.6469457667 202
-124.780942786 -36.847202301 199
-125.459100084 -37.0474588352 196
-131.562515764 -38.8497676434 193
-131.562515764 -38.8497676434 190
-132.240673061 -39.0500241777 187
-131.562515764 -38.8497676434 184
-132.240673061 -39.0500241777 181
-130.884358466 -38.6495111092 178
-130.884358466 -38.6495111092 175
-130.884358466 -38.6495111092 172
-130.206201168 -38.4492545749 169
-130.206201168 -38.4492545749 166
-129.52804387 -38.2489980407 163
-129.52804387 -38.2489980407 160
-128.849886573 -38.0487415064 157
-128.849886573 -38.0487415064 154
-113.252268724 -33.4428412188 148
-122.746470893 -36.2464326982 145
-36.6204940785 -10.8138528492 139
-38.6549659718 -11.4146224519 136
-39.3331232695 -11.6148789862 133
-33.2297075898 -9.81257017798 130
-41.3675951628 -12.2156485889 127
-116.643055213 -34.44412389 124
78.6662465391 23.2297579724 121
32.551550292 9.61231364373 118
-121.390156297 -35.8459196298 115
-123.424628191 -36.4466892325 112
-124.102785488 -36.6469457667 109
-124.102785488 -36.6469457667 106
-124.780942786 -36.847202301 103
-125.459100084 -37.0474588352 100
-125.459100084 -37.0474588352 97
-126.815414679 -37.4479719037 94
-126.815414679 -37.4479719037 91
-129.52804387 -38.2489980407 88
-131.562515764 -38.8497676434 85
-133.596987657 -39.4505372462 82
-133.596987657 -39.4505372462 79
-133.596987657 -39.4505372462 76
-133.596987657 -39.4505372462 73
-132.240673061 -39.0500241777 70
-131.562515764 -38.8497676434 67
-126.137257382 -37.2477153695 64
-126.137257382 -37.2477153695 61
105.924499128 33.2340260038 370
105.24982079 33.0223443095 367
105.24982079 33.0223443095 364
104.575142451 32.8106626152 361
103.900464113 32.5989809209 358
103.225785775 32.3872992266 355
103.225785775 32.3872992266 352
103.225785775 32.3872992266 349
103.225785775 32.3872992266 346
103.225785775 32.3872992266 343
101.876429098 31.963935838 340
101.876429098 31.963935838 337
101.20175076 31.7522541437 334
100.527072421 31.5405724495 331
100.527072421 31.5405724495 328
99.8523940827 31.3288907552 325
99.1777157443 31.1172090609 322
98.5030374059 30.9055273666 319
97.8283590675 30.6938456723 316
97.8283590675 30.6938456723 313
97.8283590675 30.6938456723 310
97.1536807291 30.482163978 307
-33.0592385814 -10.3724030203 304
-38.4566652886 -12.0658565746 301
-42.504735319 -13.3359467404 298
-45.878127011 -14.3943552118 295
82.9854356228 26.0368483979 292
106.599177467 33.4457076981 289
85.6841489764 26.883575175 286
85.009470638 26.6718934807 283
119.418065896 37.4676598896 280
132.911632664 41.7012937755 277
140.333094387 44.0297924127 274
139.658416048 43.8181107184 271
147.07987777 46.1466093556 268
150.453269462 47.205017827 265
-7.42146172236 -2.32849863721 262
-22.2643851671 -6.98549591162 259
-79.6120439308 -24.9784399264 256
-60.0463721173 -18.839670792 253
-64.7691204861 -20.321442652 250
-89.0575406684 -27.9419836465 247
-92.4309323604 -29.000392118 244
-97.1536807291 -30.482163978 241
-101.20175076 -31.7522541437 238
-106.599177467 -33.4457076981 235
-111.321925835 -34.9274795581 232
-114.695317527 -35.9858880296 229
-118.743387558 -37.2559781953 226
-122.791457588 -38.5260683611 223
-124.815492603 -39.161113444 220
-127.514205957 -40.0078402211 217
-113.345960851 -35.562524641 214
-124.140814265 -38.9494317497 211
-123.466135927 -38.7377500554 208
-125.490170942 -39.3727951382 205
-123.466135927 -38.7377500554 202
-123.466135927 -38.7377500554 199
-124.140814265 -38.9494317497 196
-130.887597649 -41.0662486926 193
-131.562275987 -41.2779303869 190
-131.562275987 -41.2779303869 187
-131.562275987 -41.2779303869 184
-130.212919311 -40.8545669983 181
-130.212919311 -40.8545669983 178
-130.212919311 -40.8545669983 175
-130.212919311 -40.8545669983 172
-129.538240972 -40.642885304 169
-128.863562634 -40.4312036097 166
-128.863562634 -40.4312036097 163
-128.863562634 -40.4312036097 160
-128.188884295 -40.2195219154 157
-128.188884295 -40.2195219154 154
-111.996604174 -35.1391612524 148
-121.442100911 -38.1027049725 145
-36.4326302734 -11.4308114917 139
-39.131343627 -12.2775382689 136
-38.4566652886 -12.0658565746 133
-33.7339169198 -10.5840847146 130
-38.4566652886 -12.0658565746 127
-116.044674204 -36.4092514182 124
71.5159038701 22.4382595949 121
33.7339169198 10.5840847146 118
-120.767422573 -37.8910232782 115
-122.791457588 -38.5260683611 112
-123.466135927 -38.7377500554 109
-124.140814265 -38.9494317497 106
-124.140814265 -38.9494317497 103
-124.815492603 -39.161113444 100
-124.815492603 -39.161113444 97
-126.16484928 -39.5844768325 94
-126.839527619 -39.7961585268 91
-128.863562634 -40.4312036097 88
-130.887597649 -41.0662486926 85
-132.911632664 -41.7012937755 82
-132.911632664 -41.7012937755 79
-132.911632664 -41.7012937755 76
-132.236954326 -41.4896120812 73
-131.562275987 -41.2779303869 70
-130.887597649 -41.0662486926 67
-125.490170942 -39.3727951382 64
-125.490170942 -39.3727951382 61
105.348084911 35.0182952984 370
104.00607109 34.5722023647 367
104.677078001 34.7952488315 364
104.00607109 34.5722023647 361
102.66405727 34.1261094309 358
102.66405727 34.1261094309 355
102.66405727 34.1261094309 352
102.66405727 34.1261094309 349
102.66405727 34.1261094309 346
102.66405727 34.1261094309 343
101.322043449 33.6800164972 340
101.322043449 33.6800164972 337
100.651036539 33.4569700303 334
99.9800296288 33.2339235635 331
99.9800296288 33.2339235635 328
98.6380158083 32.7878306297 325
97.967008898 32.5647841628 322
97.967008898 32.5647841628 319
97.2960019878 32.341737696 316
97.2960019878 32.341737696 313
97.2960019878 32.341737696 310
96.6249950775 32.1186912291 307
-32.8793386028 -10.9292768766 304
-37.5763869746 -12.4906021447 301
-42.2734353464 -14.0519274127 298
-45.6284698977 -15.1671597471 295
-48.983504449 -16.2823920814 292
89.2439190646 29.6651800936 289
86.5598914236 28.7729942261 286
85.8888845133 28.5499477592 283
116.755202385 38.8100852352 280
133.530375142 44.3862469069 277
130.846347501 43.4940610394 274
135.543395873 45.0553863075 271
10.0651036539 3.34569700303 268
144.937492616 48.1780368437 265
-7.38107601287 -2.45351113556 262
-14.7621520257 -4.90702227111 259
-21.4722211283 -7.1374869398 256
-59.7196150132 -19.8511355513 253
-63.0746495645 -20.9663678857 250
-66.4296841158 -22.08160022 247
-91.2569397954 -30.3343194942 244
-95.9539881673 -31.8956447622 241
-99.9800296288 -33.2339235635 238
-104.677078001 -34.7952488315 235
-109.374126372 -36.3565740996 232
-114.071174744 -37.9178993677 229
-118.097216206 -39.2561781689 226
-122.123257667 -40.5944569701 223
-124.136278398 -41.2635963707 220
-101.99305036 -33.9030629641 217
-127.491312949 -42.3788287051 214
-111.387147103 -37.0257135002 211
-118.097216206 -39.2561781689 208
-122.794264578 -40.817503437 205
-122.123257667 -40.5944569701 202
-120.781243847 -40.1483640364 199
-122.123257667 -40.5944569701 196
-130.846347501 -43.4940610394 193
-130.846347501 -43.4940610394 190
-130.846347501 -43.4940610394 187
-130.175340591 -43.2710145725 184
-130.175340591 -43.2710145725 181
-129.50433368 -43.0479681057 178
-129.50433368 -43.0479681057 175
-128.83332677 -42.8249216388 172
-128.83332677 -42.8249216388 169
-128.16231986 -42.6018751719 166
-128.16231986 -42.6018751719 163
-128.16231986 -42.6018751719 160
-127.491312949 -42.3788287051 157
-110.716140193 -36.8026670334 148
-110.716140193 -36.8026670334 145
-36.2343731541 -12.0445092109 139
-38.2473938848 -12.7136486115 136
-38.2473938848 -12.7136486115 133
-32.8793386028 -10.9292768766 130
-38.9184007951 -12.9366950784 127
-116.084195475 -38.5870387683 124
72.4687463081 24.0890184218 121
57.0355873721 18.9589496838 118
-120.781243847 -40.1483640364 115
-122.123257667 -40.5944569701 112
-122.794264578 -40.817503437 109
-123.465271488 -41.0405499039 106
-124.136278398 -41.2635963707 103
-124.807285308 -41.4866428376 100
-125.478292219 -41.7096893045 97
-126.149299129 -41.9327357713 94
-126.820306039 -42.1557822382 91
-128.16231986 -42.6018751719 88
-130.175340591 -43.2710145725 85
-131.517354411 -43.7171075063 82
-131.517354411 -43.7171075063 79
-132.859368232 -44.16320044 76
-131.517354411 -43.7171075063 73
-130.175340591 -43.2710145725 70
-129.50433368 -43.0479681057 67
-124.136278398 -41.2635963707 64
-124.807285308 -41.4866428376 61
104.741617531 36.792574753 370
103.40732941 36.3238795332 367
104.07447347 36.5582271431 364
103.40732941 36.3238795332 361
102.073041288 35.8551843134 358
102.073041288 35.8551843134 355
102.073041288 35.8551843134 352
102.073041288 35.8551843134 349
102.073041288 35.8551843134 346
102.073041288 35.8551843134 343
100.738753167 35.3864890937 340
100.738753167 35.3864890937 337
100.071609106 35.1521414838 334
99.4044650455 34.9177938739 331
99.4044650455 34.9177938739 328
98.7373209848 34.683446264 325
97.4030328634 34.2147510442 322
97.4030328634 34.2147510442 319
96.7358888027 33.9804034343 316
96.7358888027 33.9804034343 313
96.7358888027 33.9804034343 310
96.068744742 33.7460558244 307
-32.022914914 -11.2486852748 304
-38.0272114604 -13.3578137638 301
-42.6972198853 -14.9982470331 298
-49.3686604924 -17.341723132 292
104.741617531 36.792574753 289
87.3958719528 30.6995368958 286
123.421651231 43.35430783 283
128.758803717 45.2290887091 280
132.09452402 46.4008267586 277
137.431676506 48.2756076377 274
23.3500421248 8.20216634621 271
141.43454087 49.6816932971 268
6.00429654637 2.10912848903 265
-2.00143218212 -0.703042829675 262
-10.6743049713 -3.74956175827 259
-78.7229991635 -27.6530179672 256
-81.3915754064 -28.5904084068 253
-84.7272957099 -29.7621464563 250
-64.7129738887 -22.7317181595 247
-91.398736317 -32.1056225552 244
-93.4001684991 -32.8086653848 241
-98.7373209848 -34.683446264 238
-104.07447347 -36.5582271431 235
-108.077337835 -37.9643128025 232
-112.080202199 -39.3703984618 229
-116.750210624 -41.0108317311 226
-121.420219049 -42.6512650003 223
-124.088795292 -43.5886554399 220
-127.424515595 -44.7603934893 217
-127.424515595 -44.7603934893 214
-128.758803717 -45.2290887091 211
-112.080202199 -39.3703984618 208
-116.750210624 -41.0108317311 205
-120.753074988 -42.4169173904 202
-118.751642806 -41.7138745607 199
-119.418786867 -41.9482221706 196
-127.424515595 -44.7603934893 193
-130.093091838 -45.6977839289 190
-130.760235899 -45.9321315388 187
-129.425947777 -45.463436319 184
-128.758803717 -45.2290887091 181
-128.758803717 -45.2290887091 178
-128.758803717 -45.2290887091 175
-128.091659656 -44.9947410992 172
-128.091659656 -44.9947410992 169
-127.424515595 -44.7603934893 166
-127.424515595 -44.7603934893 163
-126.757371535 -44.5260458794 160
-126.757371535 -44.5260458794 157
-108.744481895 -38.1986604124 148
-110.745914078 -38.901703242 145
-35.3586352175 -12.4204233243 139
-39.3614995818 -13.8265089836 136
-38.0272114604 -13.3578137638 133
-20.0143218212 -7.03042829675 130
-38.6943555211 -13.5921613737 127
-118.084498745 -41.4795269508 124
70.7172704351 24.8408466485 121
35.3586352175 12.4204233243 118
-120.085930927 -42.1825697805 115
-121.420219049 -42.6512650003 112
-124.755939352 -43.8230030498 109
-124.088795292 -43.5886554399 106
-124.755939352 -43.8230030498 103
-124.755939352 -43.8230030498 100
-126.090227474 -44.2916982695 97
-126.090227474 -44.2916982695 94
-126.757371535 -44.5260458794 91
-126.757371535 -44.5260458794 88
-129.425947777 -45.463436319 85
-130.760235899 -45.9321315388 82
-131.427379959 -46.1664791487 79
-130.760235899 -45.9321315388 76
-130.760235899 -45.9321315388 73
-130.093091838 -45.6977839289 70
-128.758803717 -45.2290887091 67
-124.088795292 -43.5886554399 64
-124.088795292 -43.5886554399 61
104.105269999 38.5563582102 370
103.442179107 38.3107763108 367
103.442179107 38.3107763108 364
102.779088216 38.0651944114 361
101.452906432 37.5740306125 358
101.452906432 37.5740306125 355
101.452906432 37.5740306125 352
101.452906432 37.5740306125 349
101.452906432 37.5740306125 346
101.452906432 37.5740306125 343
100.126724649 37.0828668137 340
100.126724649 37.0828668137 337
99.463633757 36.8372849142 334
98.8005428653 36.5917030148 331
98.8005428653 36.5917030148 328
98.1374519736 36.3461211154 325
96.8112701901 35.8549573165 322
96.8112701901 35.8549573165 319
96.1481792984 35.6093754171 316
96.1481792984 35.6093754171 313
96.1481792984 35.6093754171 310
95.4850884067 35.3637935177 307
-31.8283628022 -11.7879311726 304
-38.4592717194 -14.2437501668 301
-42.4378170697 -15.7172415634 298
-50.3949077702 -18.6642243565 292
103.442179107 38.3107763108 289
88.1910885979 32.662392624 286
84.8756341393 31.4344831268 283
128.639632992 47.6428884891 280
125.987269426 46.6605608914 277
134.607451018 49.8531255839 274
133.944360126 49.6075436845 271
141.901450827 52.5545264777 268
15.9141814011 5.89396558628 265
1.98927267514 0.736745698285 262
-9.28327248399 -3.438146592 259
-77.5816343305 -28.7330822331 256
-80.897088789 -29.9609917303 253
-84.2125432476 -31.1889012274 250
-86.8649068144 -32.1712288251 247
-90.180361273 -33.3991383222 244
-93.4958157316 -34.6270478194 241
-97.4743610819 -36.100539216 238
-102.115997324 -37.819612512 235
-106.757633566 -39.538685808 232
-111.399269808 -41.257759104 229
-116.04090605 -42.9768323999 226
-120.682542292 -44.6959056959 223
-123.334905859 -45.6782332937 220
-125.987269426 -46.6605608914 217
-126.650360317 -46.9061427908 214
-127.313451209 -47.1517246902 211
-127.976542101 -47.3973065897 208
-122.008724075 -45.1870694948 205
-120.682542292 -44.6959056959 202
-117.367087833 -43.4679961988 199
-117.367087833 -43.4679961988 196
-108.083815349 -40.0298496068 193
-129.302723884 -47.8884703885 190
-128.639632992 -47.6428884891 187
-128.639632992 -47.6428884891 184
-127.976542101 -47.3973065897 181
-127.976542101 -47.3973065897 178
-127.313451209 -47.1517246902 175
-127.313451209 -47.1517246902 172
-127.313451209 -47.1517246902 169
-127.313451209 -47.1517246902 166
-126.650360317 -46.9061427908 163
-126.650360317 -46.9061427908 160
-125.987269426 -46.6605608914 157
-35.8069081525 -13.2614225691 139
-38.4592717194 -14.2437501668 136
-37.1330899359 -13.752586368 133
-19.2296358597 -7.12187508342 130
-37.1330899359 -13.752586368 127
-118.030178725 -43.7135780982 124
69.6245436299 25.78609944 121
35.1438172608 13.0158406697 118
-122.008724075 -45.1870694948 115
-122.671814967 -45.4326513942 112
-123.99799675 -45.9238151931 109
-127.313451209 -47.1517246902 106
-127.313451209 -47.1517246902 103
-128.639632992 -47.6428884891 100
-129.302723884 -47.8884703885 97
-129.965814776 -48.1340522879 94
-129.965814776 -48.1340522879 91
-129.965814776 -48.1340522879 88
-130.628905668 -48.3796341874 85
-129.965814776 -48.1340522879 82
-130.628905668 -48.3796341874 79
-130.628905668 -48.3796341874 76
-129.965814776 -48.1340522879 73
103.439223848 40.309142507 370
102.121526729 39.7956502458 367
102.780375289 40.0523963764 364
102.121526729 39.7956502458 361
100.80382961 39.2821579845 358
100.80382961 39.2821579845 355
100.80382961 39.2821579845 352
100.80382961 39.2821579845 349
100.80382961 39.2821579845 346
100.80382961 39.2821579845 343
99.4861324911 38.7686657233 340
99.4861324911 38.7686657233 337
98.8272839316 38.5119195927 334
98.168435372 38.255173462 331
98.168435372 38.255173462 328
97.5095868125 37.9984273314 325
96.1918896934 37.4849350702 322
96.1918896934 37.4849350702 319
95.5330411338 37.2281889396 316
95.5330411338 37.2281889396 313
95.5330411338 37.2281889396 310
94.8741925743 36.971442809 307
-30.9658822986 -12.067068139 304
-38.2132164535 -14.8912755758 301
-41.5074592513 -16.1750062289 298
-50.0724905253 -19.512705927 292
102.121526729 39.7956502458 289
88.2857069789 34.4039815028 286
121.886983516 47.4980341643 283
115.95734648 45.1873189887 280
122.545832075 47.7547802949 277
137.040500385 53.4031951685 274
139.017046064 54.1734335604 271
19.7654567863 7.70238391853 268
9.88272839316 3.85119195927 265
5.27078847635 2.05396904494 262
-2.63539423817 -1.02698452247 259
-14.49466831 -5.64841487359 256
-81.0383728239 -31.579774066 253
-55.3432790017 -21.5666749719 250
-86.3091613002 -33.6337431109 247
-89.6034040979 -34.917473764 244
-92.8976468957 -36.2012044171 241
-97.5095868125 -37.9984273314 238
-102.121526729 -39.7956502458 235
-106.074618087 -41.3361270295 232
-111.345406563 -43.3900960744 229
-115.29849792 -44.9305728581 226
-120.569286396 -46.9845419031 223
-122.545832075 -47.7547802949 220
-124.522377754 -48.5250186868 217
-125.840074873 -49.038510948 214
-126.498923432 -49.2952570786 211
-127.157771992 -49.5520032092 208
-115.95734648 -45.1873189887 205
-118.592740718 -46.2143035112 202
-115.95734648 -45.1873189887 199
-115.95734648 -45.1873189887 196
-106.074618087 -41.3361270295 193
-128.475469111 -50.0654954705 190
-127.816620551 -49.8087493398 187
-127.816620551 -49.8087493398 184
-127.157771992 -49.5520032092 181
-126.498923432 -49.2952570786 178
-126.498923432 -49.2952570786 175
-126.498923432 -49.2952570786 172
-126.498923432 -49.2952570786 169
-125.840074873 -49.038510948 166
-125.181226313 -48.7817648174 163
-125.181226313 -48.7817648174 160
-124.522377754 -48.5250186868 157
-35.5778222154 -13.8642910534 139
-38.8720650131 -15.1480217064 136
-36.8955193344 -14.3777833146 133
-19.1066082268 -7.44563778792 130
-36.2366707749 -14.121037184 127
86.9680098598 33.8904892415 124
68.5202501925 26.7015975842 121
50.0724905253 19.512705927 118
-119.910437837 -46.7277957724 115
-122.545832075 -47.7547802949 112
-123.204680635 -48.0115264255 109
-125.840074873 -49.038510948 106
-126.498923432 -49.2952570786 103
-127.157771992 -49.5520032092 100
-128.475469111 -50.0654954705 97
-129.134317671 -50.3222416011 94
-129.134317671 -50.3222416011 91
-129.79316623 -50.5789877317 88
-130.45201479 -50.8357338623 85
102.743669085 42.0504276179 370
101.434832537 41.5147533808 367
102.089250811 41.7825904993 364
101.434832537 41.5147533808 361
100.780414262 41.2469162622 358
100.125995988 40.9790791436 355
100.125995988 40.9790791436 352
100.125995988 40.9790791436 349
100.125995988 40.9790791436 346
100.125995988 40.9790791436 343
98.8171594389 40.4434049064 340
98.8171594389 40.4434049064 337
98.1627411645 40.1755677878 334
98.1627411645 40.1755677878 331
97.5083228901 39.9077306692 328
96.8539046156 39.6398935507 325
95.5450680668 39.1042193135 322
95.5450680668 39.1042193135 319
94.8906497923 38.8363821949 316
94.8906497923 38.8363821949 313
94.8906497923 38.8363821949 310
94.2362315179 38.5685450763 307
-31.4120771726 -12.8561816921 304
-37.9562599169 -15.534552878 301
-41.2283512891 -16.8737384709 298
-47.118115759 -19.2842725382 292
102.089250811 41.7825904993 289
89.0008853225 36.4258481276 286
87.6920487736 35.8901738905 283
117.140871123 47.9428442268 280
123.685053867 50.6212154127 277
130.883654886 53.5674237171 274
138.736674179 56.7814691401 271
136.773419356 55.9779577844 268
13.0883654886 5.35674237171 265
5.88976446987 2.41053406727 262
-2.61767309772 -1.07134847434 259
-78.5301929316 -32.1404542303 256
-20.2869665073 -8.30295067615 253
-83.765539127 -34.2831511789 250
-85.7287939503 -35.0866625347 247
-89.6553035969 -36.6936852462 244
-92.927394969 -38.0328708391 241
-96.8539046156 -39.6398935507 238
-101.434832537 -41.5147533808 235
-105.361342183 -43.1217760923 232
-109.942270104 -44.9966359224 229
-114.523198025 -46.8714957525 226
-119.104125946 -48.7463555826 223
-121.721799044 -49.8177040569 220
-124.339472142 -50.8890525312 217
-124.339472142 -50.8890525312 214
-125.648308691 -51.4247267684 211
-126.302726965 -51.692563887 208
-119.104125946 -48.7463555826 205
-117.140871123 -47.9428442268 202
-101.434832537 -41.5147533808 199
-113.214361476 -46.3358215153 196
-102.089250811 -41.7825904993 193
-126.302726965 -51.692563887 190
-126.302726965 -51.692563887 187
-126.302726965 -51.692563887 184
-125.648308691 -51.4247267684 181
-124.993890416 -51.1568896498 178
-124.993890416 -51.1568896498 175
-124.993890416 -51.1568896498 172
-124.993890416 -51.1568896498 169
-124.339472142 -50.8890525312 166
-124.339472142 -50.8890525312 163
-124.339472142 -50.8890525312 160
-123.685053867 -50.6212154127 157
-35.3385868192 -14.4632044036 139
-38.6106781914 -15.8023899965 136
-35.3385868192 -14.4632044036 133
-18.9781299585 -7.76727643898 130
-113.214361476 -46.3358215153 127
85.7287939503 35.0866625347 124
67.4050822663 27.5872232143 121
28.1399858005 11.5169960992 118
-119.104125946 -48.7463555826 115
-121.721799044 -49.8177040569 112
-122.376217318 -50.0855411755 109
-124.993890416 -51.1568896498 106
-125.648308691 -51.4247267684 103
-126.957145239 -51.9604010056 100
-127.611563514 -52.2282381242 97
-128.265981788 -52.4960752428 94
-128.265981788 -52.4960752428 91
-128.265981788 -52.4960752428 88
-128.920400063 -52.7639123613 85
102.018804135 43.7797167981 370
100.719201534 43.2220133994 367
101.369002834 43.5008650988 364
100.719201534 43.2220133994 361
99.4195989338 42.6643100007 358
99.4195989338 42.6643100007 355
99.4195989338 42.6643100007 352
99.4195989338 42.6643100007 349
99.4195989338 42.6643100007 346
99.4195989338 42.6643100007 343
98.1199963334 42.106606602 340
97.4701950332 41.8277549027 337
97.4701950332 41.8277549027 334
96.8203937329 41.5489032033 331
96.1705924327 41.270051504 328
96.1705924327 41.270051504 325
94.8709898323 40.7123481053 322
94.8709898323 40.7123481053 319
94.221188532 40.4334964059 316
94.221188532 40.4334964059 313
94.221188532 40.4334964059 310
93.5713872318 40.1546447066 307
-31.8402637108 -13.6637332682 304
-38.338276713 -16.4522502617 301
-40.9374819139 -17.5676570591 298
-39.6378793135 -17.0099536604 295
-46.7856936159 -20.0773223533 292
102.018804135 43.7797167981 289
114.365028839 49.0778990858 286
120.213240541 51.58756438 283
115.664631439 49.6356024845 280
120.213240541 51.58756438 277
129.960260044 55.7703398702 274
131.909663945 56.6068949683 271
33.1398663113 14.2214366669 268
16.2450325055 6.97129248378 265
7.14781430243 3.06736869286 262
1.29960260044 0.557703398702 259
-7.14781430243 -3.06736869286 256
-12.9960260044 -5.57703398702 253
-83.8243677285 -35.9718692163 250
-86.4235729294 -37.0872760137 247
-89.0227781303 -38.2026828111 244
-92.2717846314 -39.5969413079 241
-97.4701950332 -41.8277549027 238
-100.069400234 -42.9431617001 235
-103.968208035 -44.6162718962 232
-109.166618437 -46.847085491 229
-113.065426238 -48.5201956871 226
-118.26383664 -50.7510092819 223
-121.512843141 -52.1452677787 220
-123.462247042 -52.9818228767 217
-123.462247042 -52.9818228767 214
-124.761849642 -53.5395262754 211
-125.411650943 -53.8183779748 208
-118.26383664 -50.7510092819 205
-116.31443274 -49.9144541839 202
-98.7697976336 -42.3854583014 199
-98.7697976336 -42.3854583014 196
-98.7697976336 -42.3854583014 193
-126.061452243 -54.0972296741 190
-125.411650943 -53.8183779748 187
-125.411650943 -53.8183779748 184
-124.112048342 -53.2606745761 181
-124.112048342 -53.2606745761 178
-124.112048342 -53.2606745761 175
-124.761849642 -53.5395262754 172
-123.462247042 -52.9818228767 169
-123.462247042 -52.9818228767 166
-123.462247042 -52.9818228767 163
-122.812445742 -52.7029711774 160
-122.812445742 -52.7029711774 157
-34.4394689117 -14.7791400656 139
-37.6884754128 -16.1733985624 136
-35.7390715122 -15.3368434643 133
-18.8442377064 -8.08669928119 130
-112.415624938 -48.2413439878 127
86.4235729294 37.0872760137 124
66.2797326225 28.4428733338 121
33.1398663113 14.2214366669 118
-118.26383664 -50.7510092819 115
-120.213240541 -51.58756438 112
-121.512843141 -52.1452677787 109
-124.112048342 -53.2606745761 106
-124.761849642 -53.5395262754 103
-125.411650943 -53.8183779748 100
-126.711253543 -54.3760813735 97
-126.711253543 -54.3760813735 94
-127.361054843 -54.6549330728 91
-127.361054843 -54.6549330728 88
-121.512843141 -52.1452677787 82
-121.512843141 -52.1452677787 79
-120.863041841 -51.8664160793 76
-120.863041841 -51.8664160793 73
-120.863041841 -51.8664160793 70
-119.563439241 -51.3087126806 67
-116.96423404 -50.1933058832 64
-115.014830139 -49.3567507852 61
101.264835782 45.4965167249 370
99.9748378737 44.9169432634 367
100.619836828 45.2067299942 364
99.9748378737 44.9169432634 361
99.3298389197 44.6271565327 358
98.6848399656 44.337369802 355
98.6848399656 44.337369802 352
98.6848399656 44.337369802 349
98.6848399656 44.337369802 346
98.6848399656 44.337369802 343
97.3948420576 43.7577963405 340
96.7498431036 43.4680096098 337
96.7498431036 43.4680096098 334
96.1048441495 43.178222879 331
96.1048441495 43.178222879 328
95.4598451955 42.8884361483 325
94.1698472875 42.3088626868 322
93.5248483335 42.0190759561 319
93.5248483335 42.0190759561 316
93.5248483335 42.0190759561 313
93.5248483335 42.0190759561 310
92.8798493794 41.7292892254 307
-30.9599497931 -13.9097630751 304
-38.0549382874 -17.0974171132 301
-40.6349341035 -18.2565640361 298
-39.3449361955 -17.6769905746 295
-46.4399246897 -20.8646446127 292
90.9448525174 40.8599290332 289
87.7198577472 39.4109953795 286
119.324806494 53.6105451854 283
124.484798127 55.9288390312 280
128.999790805 57.9573461463 277
132.869784529 59.6960665307 274
34.1849445633 15.3586967288 271
138.029776161 62.0143603766 268
16.7699728046 7.53445499903 265
16.7699728046 7.53445499903 262
1.93499686207 0.869360192195 259
-5.80499058621 -2.60808057659 256
-16.7699728046 -7.53445499903 253
-82.559866115 -37.0927015337 250
-85.1398619311 -38.2518484566 247
-88.3648567013 -39.7007821102 244
-91.5898514714 -41.1497157639 241
-96.1048441495 -43.178222879 238
-99.3298389197 -44.6271565327 235
-103.844831598 -46.6556636478 232
-108.359824276 -48.6841707629 229
-112.874816954 -50.7126778781 226
-117.389809632 -52.7411849932 223
-120.614804402 -54.1901186468 220
-122.549801265 -55.059478839 217
-122.549801265 -55.059478839 214
-123.839799173 -55.6390523005 211
-124.484798127 -55.9288390312 208
-117.389809632 -52.7411849932 205
-115.45481277 -51.871824801 202
-98.6848399656 -44.337369802 199
-98.0398410116 -44.0475830712 196
-98.0398410116 -44.0475830712 193
-124.484798127 -55.9288390312 190
-124.484798127 -55.9288390312 187
-123.839799173 -55.6390523005 184
-123.194800219 -55.3492655698 181
-123.194800219 -55.3492655698 178
-123.194800219 -55.3492655698 175
-123.194800219 -55.3492655698 172
-122.549801265 -55.059478839 169
-122.549801265 -55.059478839 166
-122.549801265 -55.059478839 163
-122.549801265 -55.059478839 160
-121.904802311 -54.7696921083 157
-34.1849445633 -15.3586967288 139
-38.0549382874 -17.0974171132 136
-35.4749424713 -15.9382701902 133
-18.7049696667 -8.40381519122 130
-111.584819046 -50.1331044166 127
85.7848608852 38.5416351873 124
65.1448943564 29.2684598039 121
30.9599497931 13.9097630751 118
-117.389809632 -52.7411849932 115
-119.969805448 -53.9003319161 112
-120.614804402 -54.1901186468 109
-123.194800219 -55.3492655698 106
-123.839799173 -55.6390523005 103
-125.774796035 -56.5084124927 100
-125.774796035 -56.5084124927 97
-126.419794989 -56.7981992234 94
-126.419794989 -56.7981992234 91
-126.419794989 -56.7981992234 88
-119.969805448 -53.9003319161 85
-120.614804402 -54.1901186468 82
-120.614804402 -54.1901186468 79
-119.969805448 -53.9003319161 76
-119.969805448 -53.9003319161 73
-119.969805448 -53.9003319161 70
-118.67980754 -53.3207584546 67
-116.744810678 -52.4513982624 64
-114.164814862 -51.2922513395 61
100.481979115 47.2003376382 370
99.2019539032 46.5990594518 367
99.841966509 46.899698545 364
99.2019539032 46.5990594518 361
98.5619412974 46.2984203585 358
97.9219286915 45.9977812653 355
97.9219286915 45.9977812653 352
97.9219286915 45.9977812653 349
97.9219286915 45.9977812653 346
97.9219286915 45.9977812653 343
96.6419034799 45.3965030788 340
96.0018908741 45.0958639856 337
96.0018908741 45.0958639856 334
95.3618782682 44.7952248923 331
95.3618782682 44.7952248923 328
94.7218656624 44.4945857991 325
93.4418404507 43.8933076126 322
94.0818530566 44.1939467059 319
92.8018278449 43.5926685194 316
92.8018278449 43.5926685194 313
92.8018278449 43.5926685194 310
92.1618152391 43.2920294262 307
89.6017648158 42.0894730532 304
-38.4007563496 -18.0383455942 301
-40.3207941671 -18.9402628739 298
-39.0407689554 -18.3389846875 295
-46.7209202254 -21.9466538063 292
92.1618152391 43.2920294262 289
88.96175221 41.78883396 286
86.4017017866 40.586277587 283
123.522432925 58.0233449948 280
128.002521165 60.1278186474 277
131.8425968 61.9316532069 274
129.922558983 61.0297359272 271
34.5606807147 16.2345110348 268
19.8403907806 9.31981189035 265
12.1602395107 5.71214277151 262
5.12010084662 2.4051127459 259
1.28002521165 0.601278186474 256
-8.32016387575 -3.90830821208 253
-83.2016387575 -39.0830821208 250
-85.121676575 -39.9849994006 247
-88.3217396041 -41.4881948667 244
-90.2417774216 -42.3901121464 241
-95.3618782682 -44.7952248923 238
-98.5619412974 -46.2984203585 235
-102.402016932 -48.102254918 232
-107.522117779 -50.5073676639 229
-112.00220602 -52.6118413165 226
-117.122306866 -55.0169540624 223
-119.68235729 -56.2195104354 220
-121.602395107 -57.1214277151 217
-121.602395107 -57.1214277151 214
-122.242407713 -57.4220668083 211
-122.882420319 -57.7227059015 208
-115.842281655 -54.4156758759 205
-114.562256443 -53.8143976895 202
-113.282231231 -53.213119503 199
-95.3618782682 -44.7952248923 196
-94.7218656624 -44.4945857991 193
-123.522432925 -58.0233449948 190
-123.522432925 -58.0233449948 187
-122.882420319 -57.7227059015 184
-122.882420319 -57.7227059015 181
-122.882420319 -57.7227059015 178
-122.882420319 -57.7227059015 175
-122.242407713 -57.4220668083 172
-121.602395107 -57.1214277151 169
-121.602395107 -57.1214277151 166
-121.602395107 -57.1214277151 163
-120.962382501 -56.8207886218 160
-120.962382501 -56.8207886218 157
-33.9206681088 -15.9338719416 139
-37.120731138 -17.4370674078 136
-35.2006933205 -16.535150128 133
-17.2803403573 -8.11725551741 130
-111.362193414 -52.3112022233 127
85.121676575 39.9849994006 124
64.6412731885 30.364548417 121
32.0006302914 15.0319546619 118
-116.482294261 -54.7163149692 115
-119.042344684 -55.9188713421 112
-119.68235729 -56.2195104354 109
-122.882420319 -57.7227059015 106
-122.882420319 -57.7227059015 103
-124.16244553 -58.323984088 100
-124.802458136 -58.6246231813 97
-124.16244553 -58.323984088 94
-125.442470742 -58.9252622745 91
-125.442470742 -58.9252622745 88
-119.68235729 -56.2195104354 82
-119.042344684 -55.9188713421 79
-118.402332078 -55.6182322489 76
-118.402332078 -55.6182322489 73
-118.402332078 -55.6182322489 70
-117.762319472 -55.3175931557 67
-115.842281655 -54.4156758759 64
-112.642218626 -52.9124804098 61
99.6704574634 48.8906934809 370
98.4007701071 48.267882099 367
99.0356137852 48.57928779 364
98.4007701071 48.267882099 361
97.1310827509 47.6450707171 358
97.1310827509 47.6450707171 355
97.1310827509 47.6450707171 352
97.1310827509 47.6450707171 349
97.1310827509 47.6450707171 346
97.1310827509 47.6450707171 343
95.8613953947 47.0222593352 340
95.8613953947 47.0222593352 337
95.2265517166 46.7108536442 334
94.5917080385 46.3994479532 331
94.5917080385 46.3994479532 328
93.9568643604 46.0880422623 325
92.6871770041 45.4652308803 322
92.6871770041 45.4652308803 319
92.052333326 45.1538251894 316
92.052333326 45.1538251894 313
92.052333326 45.1538251894 310
92.052333326 45.1538251894 307
-30.4724965493 -14.9474731661 304
-38.0906206866 -18.6843414577 301
-39.995151721 -19.6185585306 298
-39.3603080429 -19.3071528396 295
-46.9784321802 -23.0440211311 292
90.1478022917 44.2196081165 289
111.097643669 54.4959959182 286
116.811236772 57.2986471369 283
111.732487347 54.8074016092 280
119.985455163 58.8556755917 277
126.968735622 62.2811381923 274
39.3603080429 19.3071528396 271
130.777797691 64.149572338 268
22.2195287339 10.8991991836 265
15.2362482747 7.47373658307 262
14.6014045965 7.16233089211 259
1.26968735622 0.622811381923 256
-10.7923425279 -5.29389674634 253
-13.9665609184 -6.85092520115 250
-85.0690528668 -41.7283625888 247
-87.6084275793 -42.9739853527 244
-90.7826459698 -44.5310138075 241
-94.5917080385 -46.3994479532 238
-98.4007701071 -48.267882099 235
-101.574988498 -49.8249105538 232
-106.018894244 -52.0047503905 229
-111.097643669 -54.4959959182 226
-115.541549416 -56.675835755 223
-118.715767807 -58.2328642098 220
-119.985455163 -58.8556755917 217
-120.620298841 -59.1670812826 214
-121.889986197 -59.7898926646 211
-122.524829875 -60.1012983555 208
-114.906705738 -56.364430064 205
-113.637018382 -55.7416186821 202
-113.002174704 -55.4302129911 199
-92.6871770041 -45.4652308803 196
-92.6871770041 -45.4652308803 193
-92.052333326 -45.1538251894 190
-122.524829875 -60.1012983555 187
-121.889986197 -59.7898926646 184
-121.889986197 -59.7898926646 181
-121.255142519 -59.4784869736 178
-121.255142519 -59.4784869736 175
-121.255142519 -59.4784869736 172
-120.620298841 -59.1670812826 169
-120.620298841 -59.1670812826 166
-121.255142519 -59.4784869736 163
-119.985455163 -58.8556755917 160
-119.985455163 -58.8556755917 157
-102.844675854 -50.4477219357 145
-36.8209333304 -18.0615300758 136
-34.9164022961 -17.1273130029 133
-17.140779309 -8.40795365596 130
-109.827956313 -53.8731845363 127
84.4342091887 41.4169568979 124
66.0237425235 32.38619186 121
33.0118712617 16.19309593 118
-115.541549416 -56.675835755 115
-117.44608045 -57.6100528278 112
-118.715767807 -58.2328642098 109
-121.889986197 -59.7898926646 106
-121.889986197 -59.7898926646 103
-123.159673553 -60.4127040465 100
-123.794517232 -60.7241097375 97
-124.42936091 -61.0355154284 94
-124.42936091 -61.0355154284 91
-124.42936091 -61.0355154284 88
-118.080924129 -57.9214585188 85
-118.715767807 -58.2328642098 82
-118.080924129 -57.9214585188 79
-118.080924129 -57.9214585188 76
-117.44608045 -57.6100528278 73
-117.44608045 -57.6100528278 70
-116.176393094 -56.9872414459 67
-114.906705738 -56.364430064 64
-113.637018382 -55.7416186821 61
98.830502334 50.5671020369 370
98.2010086886 50.2450185844 367
98.2010086886 50.2450185844 364
97.5715150431 49.9229351319 361
96.3125277523 49.278768227 358
96.3125277523 49.278768227 355
96.3125277523 49.278768227 352
96.3125277523 49.278768227 349
96.3125277523 49.278768227 346
96.3125277523 49.278768227 343
95.6830341068 48.9566847745 340
95.0535404614 48.6346013221 337
94.4240468159 48.3125178696 334
93.7945531705 47.9904344171 331
93.7945531705 47.9904344171 328
93.1650595251 47.6683509647 325
91.9060722342 47.0241840598 322
91.9060722342 47.0241840598 319
91.2765785887 46.7021006073 316
91.2765785887 46.7021006073 313
91.2765785887 46.7021006073 310
91.2765785887 46.7021006073 307
87.4996167161 44.7695998925 304
-35.2516441446 -18.036673338 301
-39.6580996627 -20.2912575052 298
-38.3991123718 -19.6470906003 295
-49.1005043443 -25.1225092922 292
99.4599959795 50.8891854893 289
110.161387952 56.3646041812 286
86.2406294252 44.1254329876 283
112.049868888 57.3308545386 280
117.085818052 59.9075221583 277
124.010248152 63.4504401354 274
41.546580599 21.2575078626 271
35.2516441446 18.036673338 268
36.5106314355 18.6808402429 265
18.8848093632 9.66250357392 262
12.5898729088 6.44166904928 259
6.92443009984 3.5429179771 256
1.25898729088 0.644166904928 253
-3.77696187264 -1.93250071478 250
-85.6111357798 -43.8033495351 247
-88.1291103615 -45.091683345 244
-90.6470849433 -46.3800171548 241
-94.4240468159 -48.3125178696 238
-98.2010086886 -50.2450185844 235
-101.348476916 -51.8554358467 232
-104.495945143 -53.465853109 229
-109.531894306 -56.0425207287 226
-114.56784347 -58.6191883485 223
-117.085818052 -59.9075221583 220
-118.974298988 -60.8737725157 217
-119.603792634 -61.1958559682 214
-120.233286279 -61.5179394206 211
-120.862779924 -61.8400228731 208
-113.308856179 -57.9750214435 205
-112.049868888 -57.3308545386 202
-112.049868888 -57.3308545386 199
-87.4996167161 -44.7695998925 196
-88.1291103615 -45.091683345 193
-121.49227357 -62.1621063256 190
-120.862779924 -61.8400228731 187
-120.233286279 -61.5179394206 184
-120.862779924 -61.8400228731 181
-120.862779924 -61.8400228731 178
-120.233286279 -61.5179394206 175
-120.233286279 -61.5179394206 172
-119.603792634 -61.1958559682 169
-119.603792634 -61.1958559682 166
-119.603792634 -61.1958559682 163
-118.974298988 -60.8737725157 160
-118.974298988 -60.8737725157 157
-35.8811377901 -18.3587567905 136
-33.9926568537 -17.3925064331 133
-17.6258220723 -9.01833666899 130
93.1650595251 47.6683509647 127
84.3521484889 43.1591826302 124
64.8378454803 33.1745956038 121
47.8415170534 24.4783423873 118
-114.56784347 -58.6191883485 115
-116.456324406 -59.5854387059 112
-117.715311697 -60.2296056108 109
-120.862779924 -61.8400228731 106
-121.49227357 -62.1621063256 103
-121.49227357 -62.1621063256 100
-122.751260861 -62.8062732305 97
-123.380754506 -63.128356683 94
-123.380754506 -63.128356683 91
-122.751260861 -62.8062732305 88
-122.751260861 -62.8062732305 85
-122.751260861 -62.8062732305 82
-123.380754506 -63.128356683 79
-123.380754506 -63.128356683 76
-122.751260861 -62.8062732305 73
-122.121767215 -62.484189778 70
-118.974298988 -60.8737725157 67
-116.456324406 -59.5854387059 64
-117.715311697 -60.2296056108 61
97.9623533449 52.2290850688 370
96.7144252768 51.5637464055 367
97.3383893109 51.8964157371 364
96.7144252768 51.5637464055 361
95.4664972088 50.8984077422 358
95.4664972088 50.8984077422 355
95.4664972088 50.8984077422 352
95.4664972088 50.8984077422 349
95.4664972088 50.8984077422 346
