199.722592217 62.6633675676 417
199.722592217 62.6633675676 415
199.722592217 62.6633675676 414
199.722592217 62.6633675676 413
198.910711761 62.4086384311 411
198.098831305 62.1539092947 410
198.098831305 62.1539092947 408
198.098831305 62.1539092947 407
198.098831305 62.1539092947 406
198.098831305 62.1539092947 405
198.098831305 62.1539092947 404
197.286950849 61.8991801582 403
197.286950849 61.8991801582 402
197.286950849 61.8991801582 401
197.286950849 61.8991801582 400
197.286950849 61.8991801582 399
197.286950849 61.8991801582 398
196.475070392 61.6444510218 397
197.286950849 61.8991801582 396
197.286950849 61.8991801582 395
196.475070392 61.6444510218 394
196.475070392 61.6444510218 393
196.475070392 61.6444510218 392
196.475070392 61.6444510218 391
196.475070392 61.6444510218 390
196.475070392 61.6444510218 389
196.475070392 61.6444510218 388
195.663189936 61.3897218853 387
195.663189936 61.3897218853 386
195.663189936 61.3897218853 385
194.85130948 61.1349927489 384
195.663189936 61.3897218853 383
194.85130948 61.1349927489 382
194.85130948 61.1349927489 381
194.85130948 61.1349927489 380
194.85130948 61.1349927489 379
194.039429024 60.8802636124 378
194.039429024 60.8802636124 377
194.039429024 60.8802636124 376
193.227548568 60.6255344759 375
193.227548568 60.6255344759 373
193.227548568 60.6255344759 372
193.227548568 60.6255344759 371
192.415668112 60.3708053395 370
193.227548568 60.6255344759 369
192.415668112 60.3708053395 368
191.603787655 60.116076203 367
191.603787655 60.116076203 366
191.603787655 60.116076203 365
191.603787655 60.116076203 364
192.415668112 60.3708053395 363
192.415668112 60.3708053395 362
191.603787655 60.116076203 361
191.603787655 60.116076203 360
191.603787655 60.116076203 359
191.603787655 60.116076203 358
191.603787655 60.116076203 357
190.791907199 59.8613470666 356
191.603787655 60.116076203 355
190.791907199 59.8613470666 354
190.791907199 59.8613470666 353
190.791907199 59.8613470666 352
191.603787655 60.116076203 351
190.791907199 59.8613470666 350
190.791907199 59.8613470666 349
189.980026743 59.6066179301 348
189.168146287 59.3518887937 347
189.980026743 59.6066179301 346
189.980026743 59.6066179301 345
189.168146287 59.3518887937 344
189.168146287 59.3518887937 343
189.168146287 59.3518887937 342
189.168146287 59.3518887937 341
189.168146287 59.3518887937 340
189.168146287 59.3518887937 339
189.168146287 59.3518887937 338
189.168146287 59.3518887937 337
188.356265831 59.0971596572 336
188.356265831 59.0971596572 335
188.356265831 59.0971596572 334
188.356265831 59.0971596572 333
187.544385375 58.8424305208 332
187.544385375 58.8424305208 331
188.356265831 59.0971596572 330
187.544385375 58.8424305208 329
186.732504918 58.5877013843 328
186.732504918 58.5877013843 327
186.732504918 58.5877013843 326
186.732504918 58.5877013843 325
186.732504918 58.5877013843 324
186.732504918 58.5877013843 323
186.732504918 58.5877013843 322
185.920624462 58.3329722479 321
185.920624462 58.3329722479 320
185.108744006 58.0782431114 319
185.108744006 58.0782431114 318
184.29686355 57.823513975 317
185.108744006 58.0782431114 316
185.108744006 58.0782431114 315
184.29686355 57.823513975 314
184.29686355 57.823513975 312
184.29686355 57.823513975 311
184.29686355 57.823513975 310
183.484983094 57.5687848385 309
183.484983094 57.5687848385 308
183.484983094 57.5687848385 307
183.484983094 57.5687848385 306
183.484983094 57.5687848385 305
183.484983094 57.5687848385 304
182.673102638 57.3140557021 303
182.673102638 57.3140557021 302
182.673102638 57.3140557021 301
183.484983094 57.5687848385 300
182.673102638 57.3140557021 299
181.861222181 57.0593265656 298
181.861222181 57.0593265656 297
181.861222181 57.0593265656 296
181.049341725 56.8045974291 294
181.861222181 57.0593265656 293
181.861222181 57.0593265656 292
181.861222181 57.0593265656 291
181.049341725 56.8045974291 290
181.049341725 56.8045974291 289
181.049341725 56.8045974291 288
181.049341725 56.8045974291 287
181.049341725 56.8045974291 286
180.237461269 56.5498682927 285
179.425580813 56.2951391562 284
179.425580813 56.2951391562 283
179.425580813 56.2951391562 282
-47.0890664577 -14.7742899143 281
-47.9009469139 -15.0290190508 280
-47.9009469139 -15.0290190508 279
-47.9009469139 -15.0290190508 278
-47.9009469139 -15.0290190508 277
-47.9009469139 -15.0290190508 276
-48.71282737 -15.2837481872 275
-50.3365882824 -15.7932064601 274
-51.1484687385 -16.0479355966 273
-51.1484687385 -16.0479355966 272
-52.7722296509 -16.5573938695 271
-54.3959905632 -17.0668521424 270
-55.2078710194 -17.3215812788 269
-56.8316319317 -17.8310395517 268
-56.8316319317 -17.8310395517 267
-57.6435123879 -18.0857686882 266
-57.6435123879 -18.0857686882 265
-59.2672733002 -18.5952269611 264
-60.8910342125 -19.104685234 263
-61.7029146687 -19.3594143705 262
-62.5147951249 -19.6141435069 261
-63.326675581 -19.8688726434 260
-64.1385560372 -20.1236017798 259
-64.1385560372 -20.1236017798 258
-64.9504364934 -20.3783309163 257
-66.5741974057 -20.8877891892 256
-66.5741974057 -20.8877891892 255
-68.197958318 -21.3972474621 254
-69.8217192304 -21.906705735 253
-70.6335996865 -22.1614348715 252
-70.6335996865 -22.1614348715 251
-71.4454801427 -22.4161640079 250
-72.2573605989 -22.6708931444 249
-73.069241055 -22.9256222808 248
-74.6930019674 -23.4350805537 247
-76.3167628797 -23.9445388266 246
-77.1286433359 -24.1992679631 245
-77.1286433359 -24.1992679631 244
-77.1286433359 -24.1992679631 243
-79.5642847044 -24.9634553724 242
-81.1880456167 -25.4729136454 241
-82.8118065291 -25.9823719183 240
-83.6236869852 -26.2371010547 239
-83.6236869852 -26.2371010547 238
-86.0593283537 -27.0012884641 237
-87.6830892661 -27.510746737 236
-89.3068501784 -28.0202050099 235
-90.9306110907 -28.5296632828 234
-92.5543720031 -29.0391215557 233
-94.9900133716 -29.8033089651 232
-96.6137742839 -30.312767238 231
-96.6137742839 -30.312767238 230
-99.0494156524 -31.0769546473 229
-101.485057021 -31.8411420567 228
-103.108817933 -32.3506003296 227
-105.544459302 -33.114787739 226
-107.98010067 -33.8789751483 225
-109.603861583 -34.3884334212 224
-111.227622495 -34.8978916941 223
-114.47514432 -35.91680824 222
-116.098905232 -36.4262665129 221
-116.098905232 -36.4262665129 220
-118.5345466 -37.1904539222 219
-120.158307513 -37.6999121951 218
-121.782068425 -38.209370468 217
205.095451875 68.174880485 455
203.480527057 67.6380704025 452
203.480527057 67.6380704025 451
202.673064648 67.3696653612 450
202.673064648 67.3696653612 449
201.865602239 67.1012603199 448
202.673064648 67.3696653612 447
202.673064648 67.3696653612 446
202.673064648 67.3696653612 445
201.865602239 67.1012603199 442
201.865602239 67.1012603199 441
201.865602239 67.1012603199 440
202.673064648 67.3696653612 439
201.865602239 67.1012603199 438
201.058139831 66.8328552786 437
200.250677422 66.5644502374 434
200.250677422 66.5644502374 433
200.250677422 66.5644502374 432
200.250677422 66.5644502374 431
200.250677422 66.5644502374 430
201.058139831 66.8328552786 429
201.058139831 66.8328552786 428
200.250677422 66.5644502374 427
198.635752604 66.0276401548 426
199.443215013 66.2960451961 425
199.443215013 66.2960451961 423
200.250677422 66.5644502374 422
200.250677422 66.5644502374 421
200.250677422 66.5644502374 420
199.443215013 66.2960451961 419
198.635752604 66.0276401548 418
198.635752604 66.0276401548 417
197.828290195 65.7592351135 414
197.828290195 65.7592351135 413
197.020827786 65.4908300723 411
196.213365377 65.222425031 410
197.020827786 65.4908300723 408
197.020827786 65.4908300723 407
197.828290195 65.7592351135 406
197.020827786 65.4908300723 405
197.020827786 65.4908300723 404
196.213365377 65.222425031 403
196.213365377 65.222425031 402
196.213365377 65.222425031 401
195.405902968 64.9540199897 400
195.405902968 64.9540199897 399
196.213365377 65.222425031 398
196.213365377 65.222425031 397
196.213365377 65.222425031 396
196.213365377 65.222425031 395
195.405902968 64.9540199897 394
195.405902968 64.9540199897 393
195.405902968 64.9540199897 392
195.405902968 64.9540199897 391
195.405902968 64.9540199897 390
196.213365377 65.222425031 389
194.598440559 64.6856149484 388
194.598440559 64.6856149484 387
194.598440559 64.6856149484 386
194.598440559 64.6856149484 385
193.79097815 64.4172099071 384
193.79097815 64.4172099071 383
193.79097815 64.4172099071 382
193.79097815 64.4172099071 381
194.598440559 64.6856149484 380
193.79097815 64.4172099071 378
192.983515741 64.1488048659 377
192.983515741 64.1488048659 376
192.983515741 64.1488048659 375
192.176053332 63.8803998246 372
192.176053332 63.8803998246 371
191.368590923 63.6119947833 370
192.176053332 63.8803998246 369
192.176053332 63.8803998246 368
191.368590923 63.6119947833 367
190.561128514 63.343589742 366
191.368590923 63.6119947833 365
190.561128514 63.343589742 364
191.368590923 63.6119947833 363
191.368590923 63.6119947833 362
190.561128514 63.343589742 361
190.561128514 63.343589742 360
190.561128514 63.343589742 359
190.561128514 63.343589742 358
190.561128514 63.343589742 357
189.753666105 63.0751847007 356
189.753666105 63.0751847007 355
189.753666105 63.0751847007 354
189.753666105 63.0751847007 353
190.561128514 63.343589742 352
189.753666105 63.0751847007 351
190.561128514 63.343589742 350
189.753666105 63.0751847007 349
188.946203696 62.8067796595 348
188.138741287 62.5383746182 347
188.946203696 62.8067796595 346
188.946203696 62.8067796595 345
188.138741287 62.5383746182 344
188.138741287 62.5383746182 343
188.138741287 62.5383746182 342
188.138741287 62.5383746182 341
188.138741287 62.5383746182 340
188.138741287 62.5383746182 339
188.138741287 62.5383746182 338
188.138741287 62.5383746182 337
187.331278878 62.2699695769 336
187.331278878 62.2699695769 335
187.331278878 62.2699695769 334
187.331278878 62.2699695769 333
186.523816469 62.0015645356 332
186.523816469 62.0015645356 331
186.523816469 62.0015645356 330
186.523816469 62.0015645356 329
185.71635406 61.7331594943 328
185.71635406 61.7331594943 327
185.71635406 61.7331594943 326
185.71635406 61.7331594943 325
185.71635406 61.7331594943 324
185.71635406 61.7331594943 323
185.71635406 61.7331594943 322
184.908891651 61.4647544531 321
184.908891651 61.4647544531 320
184.101429242 61.1963494118 319
183.293966833 60.9279443705 318
183.293966833 60.9279443705 317
184.101429242 61.1963494118 316
184.101429242 61.1963494118 315
184.908891651 61.4647544531 314
183.293966833 60.9279443705 312
183.293966833 60.9279443705 311
183.293966833 60.9279443705 310
182.486504425 60.6595393292 309
182.486504425 60.6595393292 308
183.293966833 60.9279443705 307
182.486504425 60.6595393292 306
181.679042016 60.3911342879 305
182.486504425 60.6595393292 304
181.679042016 60.3911342879 303
181.679042016 60.3911342879 302
181.679042016 60.3911342879 301
181.679042016 60.3911342879 300
180.871579607 60.1227292467 299
180.871579607 60.1227292467 298
180.871579607 60.1227292467 297
180.064117198 59.8543242054 296
180.064117198 59.8543242054 294
180.871579607 60.1227292467 293
180.064117198 59.8543242054 292
180.871579607 60.1227292467 291
180.064117198 59.8543242054 290
180.064117198 59.8543242054 289
180.064117198 59.8543242054 288
180.871579607 60.1227292467 287
180.871579607 60.1227292467 286
179.256654789 59.5859191641 285
178.44919238 59.3175141228 284
178.44919238 59.3175141228 283
178.44919238 59.3175141228 282
-46.0253573106 -15.2990873529 281
-46.8328197196 -15.5674923942 280
-46.0253573106 -15.2990873529 279
-46.8328197196 -15.5674923942 278
-46.8328197196 -15.5674923942 277
-46.8328197196 -15.5674923942 276
-47.6402821285 -15.8358974355 275
-50.0626693554 -16.6411125593 274
-50.8701317644 -16.9095176006 273
-50.8701317644 -16.9095176006 272
-51.6775941733 -17.1779226419 271
-53.2925189912 -17.7147327245 270
-54.9074438091 -18.251542807 269
-55.7149062181 -18.5199478483 268
-56.5223686271 -18.7883528896 267
-57.329831036 -19.0567579309 266
-58.137293445 -19.3251629721 265
-58.137293445 -19.3251629721 264
-59.7522182629 -19.8619730547 263
-61.3671430808 -20.3987831373 262
-61.3671430808 -20.3987831373 261
-62.9820678987 -20.9355932198 260
-62.9820678987 -20.9355932198 259
-63.7895303077 -21.2039982611 258
-63.7895303077 -21.2039982611 257
-65.4044551256 -21.7408083437 256
-66.2119175346 -22.0092133849 255
-67.8268423525 -22.5460234675 254
-67.8268423525 -22.5460234675 253
-69.4417671704 -23.0828335501 252
-70.2492295793 -23.3512385913 251
-70.2492295793 -23.3512385913 250
-71.8641543973 -23.8880486739 249
-71.8641543973 -23.8880486739 248
-73.4790792152 -24.4248587565 247
-75.0940040331 -24.961668839 246
-76.708928851 -25.4984789216 245
-76.708928851 -25.4984789216 244
-77.51639126 -25.7668839629 243
-79.1313160779 -26.3036940454 242
-80.7462408958 -26.840504128 241
-82.3611657137 -27.3773142105 240
-83.1686281227 -27.6457192518 239
-83.9760905316 -27.9141242931 238
-87.2059401675 -28.9877444582 237
-88.8208649854 -29.5245545408 236
-89.6283273943 -29.792959582 235
-90.4357898033 -30.0613646233 234
-92.0507146212 -30.5981747059 233
-94.4731018481 -31.4033898297 232
-96.088026666 -31.9401999123 231
-97.7029514839 -32.4770099948 230
-100.125338711 -33.2822251187 229
-101.740263529 -33.8190352012 228
-104.162650756 -34.6242503251 227
-106.585037982 -35.4294654489 226
-109.007425209 -36.2346805728 225
-109.814887618 -36.503085614 224
-112.237274845 -37.3083007379 223
-113.852199663 -37.8451108204 222
-115.467124481 -38.381920903 221
-117.082049299 -38.9187309856 220
-118.696974117 -39.4555410681 219
-121.119361344 -40.260756192 218
-122.734286162 -40.7975662745 217
203.914759304 71.62911173 455
202.309131278 71.0651029762 452
202.309131278 71.0651029762 451
202.309131278 71.0651029762 450
201.506317265 70.7830985993 449
201.506317265 70.7830985993 448
201.506317265 70.7830985993 447
201.506317265 70.7830985993 446
201.506317265 70.7830985993 445
201.506317265 70.7830985993 444
201.506317265 70.7830985993 442
200.703503252 70.5010942224 441
201.506317265 70.7830985993 439
200.703503252 70.5010942224 438
199.900689239 70.2190898456 437
199.900689239 70.2190898456 436
199.097875226 69.9370854687 433
199.097875226 69.9370854687 432
199.097875226 69.9370854687 431
199.900689239 70.2190898456 430
200.703503252 70.5010942224 429
199.900689239 70.2190898456 428
197.4922472 69.3730767149 426
197.4922472 69.3730767149 425
198.295061213 69.6550810918 423
199.097875226 69.9370854687 422
199.097875226 69.9370854687 421
198.295061213 69.6550810918 420
198.295061213 69.6550810918 419
198.295061213 69.6550810918 418
196.689433187 69.091072338 417
196.689433187 69.091072338 414
196.689433187 69.091072338 413
195.886619174 68.8090679611 411
195.886619174 68.8090679611 410
195.886619174 68.8090679611 407
196.689433187 69.091072338 406
195.886619174 68.8090679611 405
195.886619174 68.8090679611 404
195.083805161 68.5270635842 403
195.083805161 68.5270635842 402
194.280991148 68.2450592073 401
194.280991148 68.2450592073 400
194.280991148 68.2450592073 399
195.083805161 68.5270635842 398
194.280991148 68.2450592073 397
195.083805161 68.5270635842 396
195.083805161 68.5270635842 395
194.280991148 68.2450592073 394
194.280991148 68.2450592073 393
194.280991148 68.2450592073 392
194.280991148 68.2450592073 391
194.280991148 68.2450592073 390
194.280991148 68.2450592073 389
193.478177135 67.9630548304 388
192.675363122 67.6810504535 387
193.478177135 67.9630548304 386
193.478177135 67.9630548304 385
192.675363122 67.6810504535 384
192.675363122 67.6810504535 383
192.675363122 67.6810504535 382
192.675363122 67.6810504535 381
192.675363122 67.6810504535 380
191.872549109 67.3990460767 378
192.675363122 67.6810504535 377
192.675363122 67.6810504535 376
191.872549109 67.3990460767 375
191.872549109 67.3990460767 372
191.069735096 67.1170416998 371
190.266921083 66.8350373229 370
191.069735096 67.1170416998 368
191.069735096 67.1170416998 367
189.46410707 66.553032946 366
189.46410707 66.553032946 365
189.46410707 66.553032946 364
190.266921083 66.8350373229 363
190.266921083 66.8350373229 362
189.46410707 66.553032946 361
189.46410707 66.553032946 360
189.46410707 66.553032946 359
189.46410707 66.553032946 358
188.661293057 66.2710285691 357
188.661293057 66.2710285691 356
189.46410707 66.553032946 355
189.46410707 66.553032946 354
189.46410707 66.553032946 353
189.46410707 66.553032946 352
188.661293057 66.2710285691 351
188.661293057 66.2710285691 350
187.858479044 65.9890241922 349
187.858479044 65.9890241922 348
187.055665031 65.7070198153 347
187.055665031 65.7070198153 346
187.858479044 65.9890241922 345
187.858479044 65.9890241922 344
187.055665031 65.7070198153 343
187.055665031 65.7070198153 342
187.055665031 65.7070198153 341
187.055665031 65.7070198153 340
187.055665031 65.7070198153 339
187.055665031 65.7070198153 338
187.055665031 65.7070198153 337
186.252851018 65.4250154384 336
186.252851018 65.4250154384 335
186.252851018 65.4250154384 334
186.252851018 65.4250154384 333
185.450037005 65.1430110615 332
185.450037005 65.1430110615 331
185.450037005 65.1430110615 330
185.450037005 65.1430110615 329
184.647222991 64.8610066846 328
184.647222991 64.8610066846 327
184.647222991 64.8610066846 326
184.647222991 64.8610066846 325
184.647222991 64.8610066846 324
183.844408978 64.5790023078 323
183.844408978 64.5790023078 322
183.844408978 64.5790023078 321
183.844408978 64.5790023078 320
183.041594965 64.2969979309 319
183.041594965 64.2969979309 318
183.041594965 64.2969979309 317
183.041594965 64.2969979309 316
183.041594965 64.2969979309 315
183.041594965 64.2969979309 314
183.041594965 64.2969979309 313
182.238780952 64.014993554 312
182.238780952 64.014993554 311
182.238780952 64.014993554 310
181.435966939 63.7329891771 309
181.435966939 63.7329891771 308
182.238780952 64.014993554 307
181.435966939 63.7329891771 306
180.633152926 63.4509848002 305
181.435966939 63.7329891771 304
181.435966939 63.7329891771 303
180.633152926 63.4509848002 302
181.435966939 63.7329891771 301
181.435966939 63.7329891771 300
180.633152926 63.4509848002 299
179.830338913 63.1689804233 298
179.830338913 63.1689804233 297
179.830338913 63.1689804233 296
179.0275249 62.8869760464 294
179.830338913 63.1689804233 293
179.830338913 63.1689804233 292
179.830338913 63.1689804233 291
179.0275249 62.8869760464 290
178.224710887 62.6049716695 289
179.0275249 62.8869760464 288
179.830338913 63.1689804233 287
179.830338913 63.1689804233 286
178.224710887 62.6049716695 285
177.421896874 62.3229672926 284
177.421896874 62.3229672926 283
177.421896874 62.3229672926 282
-45.7603987414 -16.0742494827 281
-46.5632127544 -16.3562538596 280
-46.5632127544 -16.3562538596 279
-45.7603987414 -16.0742494827 278
-45.7603987414 -16.0742494827 277
-46.5632127544 -16.3562538596 276
-48.1688407804 -16.9202626134 275
-48.9716547934 -17.2022669903 274
-50.5772828194 -17.7662757441 273
-50.5772828194 -17.7662757441 272
-51.3800968324 -18.0482801209 271
-54.5913528844 -19.1762976285 270
-54.5913528844 -19.1762976285 269
-55.3941668974 -19.4583020054 268
-56.1969809105 -19.7403063823 267
-56.9997949235 -20.0223107592 266
-57.8026089365 -20.3043151361 265
-57.8026089365 -20.3043151361 264
-59.4082369625 -20.8683238898 263
-60.2110509755 -21.1503282667 262
-61.0138649885 -21.4323326436 261
-61.8166790015 -21.7143370205 260
-63.4223070275 -22.2783457743 259
-63.4223070275 -22.2783457743 258
-64.2251210405 -22.5603501512 257
-65.0279350535 -22.8423545281 256
-65.0279350535 -22.8423545281 255
-66.6335630795 -23.4063632819 254
-68.2391911056 -23.9703720356 253
-69.0420051186 -24.2523764125 252
-69.8448191316 -24.5343807894 251
-69.8448191316 -24.5343807894 250
-71.4504471576 -25.0983895432 249
-72.2532611706 -25.3803939201 248
-73.8588891966 -25.9444026739 247
-75.4645172226 -26.5084114276 246
-76.2673312356 -26.7904158045 245
-76.2673312356 -26.7904158045 244
-77.0701452486 -27.0724201814 243
-79.4785872876 -27.9184333121 242
-81.0842153137 -28.4824420659 241
-82.6898433397 -29.0464508196 240
-82.6898433397 -29.0464508196 239
-84.2954713657 -29.6104595734 238
-85.9010993917 -30.1744683272 237
-89.1123554437 -31.3024858348 236
-89.1123554437 -31.3024858348 235
-90.7179834697 -31.8664945885 234
-93.1264255088 -32.7125077192 233
-95.5348675478 -33.5585208499 232
-96.3376815608 -33.8405252268 231
-99.5489376128 -34.9685427343 230
-101.154565639 -35.5325514881 229
-102.760193665 -36.0965602419 228
-105.168635704 -36.9425733726 227
-107.577077743 -37.7885865032 226
-109.182705769 -38.352595257 225
-111.591147808 -39.1986083877 224
-113.999589847 -40.0446215183 223
-114.80240386 -40.3266258952 222
-115.605217873 -40.6086302721 221
-118.013659912 -41.4546434028 220
-120.422101951 -42.3006565335 219
-121.224915964 -42.5826609104 218
-122.027729977 -42.8646652872 217
201.877958379 74.7673857249 455
201.080021785 74.4718624612 453
201.080021785 74.4718624612 452
201.080021785 74.4718624612 451
201.877958379 74.7673857249 450
200.28208519 74.1763391975 449
199.484148596 73.8808159337 448
199.484148596 73.8808159337 447
199.484148596 73.8808159337 446
200.28208519 74.1763391975 445
200.28208519 74.1763391975 444
199.484148596 73.8808159337 442
200.28208519 74.1763391975 441
200.28208519 74.1763391975 440
200.28208519 74.1763391975 439
200.28208519 74.1763391975 438
198.686212001 73.58529267 437
197.888275407 73.2897694062 435
197.888275407 73.2897694062 434
197.090338813 72.9942461425 433
198.686212001 73.58529267 432
198.686212001 73.58529267 431
198.686212001 73.58529267 429
197.888275407 73.2897694062 428
196.292402218 72.6987228788 425
196.292402218 72.6987228788 424
197.090338813 72.9942461425 421
197.090338813 72.9942461425 420
197.090338813 72.9942461425 419
197.090338813 72.9942461425 418
196.292402218 72.6987228788 417
196.292402218 72.6987228788 415
196.292402218 72.6987228788 414
195.494465624 72.403199615 413
194.69652903 72.1076763513 411
193.898592435 71.8121530876 410
194.69652903 72.1076763513 408
194.69652903 72.1076763513 407
194.69652903 72.1076763513 406
194.69652903 72.1076763513 405
194.69652903 72.1076763513 404
193.898592435 71.8121530876 403
193.898592435 71.8121530876 402
193.898592435 71.8121530876 401
193.100655841 71.5166298238 400
193.100655841 71.5166298238 399
193.100655841 71.5166298238 398
193.100655841 71.5166298238 397
193.898592435 71.8121530876 396
193.898592435 71.8121530876 395
193.100655841 71.5166298238 394
193.100655841 71.5166298238 393
193.100655841 71.5166298238 392
193.100655841 71.5166298238 391
193.100655841 71.5166298238 390
193.100655841 71.5166298238 389
193.100655841 71.5166298238 388
193.100655841 71.5166298238 387
192.302719246 71.2211065601 386
192.302719246 71.2211065601 385
191.504782652 70.9255832964 384
191.504782652 70.9255832964 383
191.504782652 70.9255832964 382
191.504782652 70.9255832964 381
192.302719246 71.2211065601 380
190.706846058 70.6300600326 377
190.706846058 70.6300600326 376
190.706846058 70.6300600326 375
190.706846058 70.6300600326 372
189.908909463 70.3345367689 371
189.110972869 70.0390135052 370
189.110972869 70.0390135052 368
189.908909463 70.3345367689 367
189.110972869 70.0390135052 366
188.313036274 69.7434902414 365
189.110972869 70.0390135052 364
189.110972869 70.0390135052 362
188.313036274 69.7434902414 361
188.313036274 69.7434902414 360
188.313036274 69.7434902414 359
187.51509968 69.4479669777 358
187.51509968 69.4479669777 357
187.51509968 69.4479669777 356
187.51509968 69.4479669777 355
187.51509968 69.4479669777 354
187.51509968 69.4479669777 353
187.51509968 69.4479669777 352
187.51509968 69.4479669777 351
187.51509968 69.4479669777 350
186.717163086 69.152443714 349
186.717163086 69.152443714 348
185.919226491 68.8569204502 347
185.919226491 68.8569204502 346
186.717163086 69.152443714 345
185.919226491 68.8569204502 344
185.919226491 68.8569204502 343
185.919226491 68.8569204502 342
185.919226491 68.8569204502 341
185.919226491 68.8569204502 340
185.919226491 68.8569204502 339
185.919226491 68.8569204502 338
185.919226491 68.8569204502 337
185.121289897 68.5613971865 336
185.121289897 68.5613971865 335
185.121289897 68.5613971865 334
185.121289897 68.5613971865 333
184.323353303 68.2658739228 332
184.323353303 68.2658739228 331
185.121289897 68.5613971865 330
184.323353303 68.2658739228 329
183.525416708 67.970350659 328
183.525416708 67.970350659 327
183.525416708 67.970350659 326
183.525416708 67.970350659 325
183.525416708 67.970350659 324
183.525416708 67.970350659 323
183.525416708 67.970350659 322
182.727480114 67.6748273953 321
182.727480114 67.6748273953 320
181.929543519 67.3793041316 319
181.929543519 67.3793041316 318
181.929543519 67.3793041316 317
181.929543519 67.3793041316 316
181.929543519 67.3793041316 315
181.929543519 67.3793041316 314
181.131606925 67.0837808678 312
181.131606925 67.0837808678 311
181.131606925 67.0837808678 310
180.333670331 66.7882576041 309
180.333670331 66.7882576041 308
181.131606925 67.0837808678 307
180.333670331 66.7882576041 306
179.535733736 66.4927343403 305
180.333670331 66.7882576041 304
180.333670331 66.7882576041 303
179.535733736 66.4927343403 302
179.535733736 66.4927343403 301
179.535733736 66.4927343403 300
178.737797142 66.1972110766 299
178.737797142 66.1972110766 298
178.737797142 66.1972110766 297
177.939860547 65.9016878129 296
177.939860547 65.9016878129 294
177.939860547 65.9016878129 293
178.737797142 66.1972110766 292
178.737797142 66.1972110766 291
177.939860547 65.9016878129 290
177.939860547 65.9016878129 289
177.939860547 65.9016878129 288
177.939860547 65.9016878129 287
178.737797142 66.1972110766 286
177.141923953 65.6061645491 285
177.141923953 65.6061645491 284
176.343987359 65.3106412854 283
176.343987359 65.3106412854 282
-45.4823858799 -16.8448260329 281
-45.4823858799 -16.8448260329 280
-45.4823858799 -16.8448260329 279
-46.2803224742 -17.1403492966 278
-46.2803224742 -17.1403492966 277
-46.2803224742 -17.1403492966 276
-47.0782590686 -17.4358725604 275
-48.6741322574 -18.0269190878 274
-50.2700054462 -18.6179656153 273
-50.2700054462 -18.6179656153 272
-51.0679420405 -18.913488879 271
-52.6638152293 -19.5045354065 270
-54.2596884181 -20.095581934 269
-55.0576250125 -20.3911051977 268
-55.8555616068 -20.6866284614 267
-56.6534982012 -20.9821517252 266
-57.4514347956 -21.2776749889 265
-58.24937139 -21.5731982526 264
-59.0473079844 -21.8687215164 263
-59.8452445788 -22.1642447801 262
-60.6431811731 -22.4597680439 261
-62.2390543619 -23.0508145713 260
-62.2390543619 -23.0508145713 259
-63.0369909563 -23.3463378351 258
-63.8349275507 -23.6418610988 257
-63.8349275507 -23.6418610988 256
-65.4308007394 -24.2329076263 255
-66.2287373338 -24.52843089 254
-67.8246105226 -25.1194774175 253
-69.4204837114 -25.7105239449 252
-69.4204837114 -25.7105239449 251
-69.4204837114 -25.7105239449 250
-70.2184203057 -26.0060472087 249
-71.8142934945 -26.5970937361 248
-72.6122300889 -26.8926169999 247
-74.2081032777 -27.4836635273 246
-75.8039764664 -28.0747100548 245
-75.8039764664 -28.0747100548 244
-77.3998496552 -28.6657565823 243
-78.995722844 -29.2568031098 242
-80.5915960327 -29.8478496372 241
-82.1874692215 -30.4388961647 240
-82.1874692215 -30.4388961647 239
-83.7833424103 -31.0299426922 238
-85.379215599 -31.6209892196 237
-87.7730253822 -32.5075590108 236
-88.5709619766 -32.8030822746 235
-89.3688985709 -33.0986055383 234
-91.7627083541 -33.9851753295 233
-94.9544547316 -35.1672683844 232
-95.752391326 -35.4627916482 231
-98.9441377035 -36.6448847031 230
-100.540010892 -37.2359312306 229
-102.933820675 -38.1225010218 228
-105.327630459 -39.009070813 227
-106.923503647 -39.6001173405 226
-107.721440242 -39.8956406042 225
-110.913186619 -41.0777336591 224
-112.509059808 -41.6687801866 223
-114.104932997 -42.2598267141 222
-115.700806186 -42.8508732416 221
-118.094615969 -43.7374430328 220
-119.690489158 -44.3284895602 219
-120.488425752 -44.624012824 218
-121.286362346 -44.9195360877 217
200.586380757 78.1663348397 453
199.793549212 77.8573769945 452
199.793549212 77.8573769945 451
199.793549212 77.8573769945 450
199.000717668 77.5484191493 449
199.000717668 77.5484191493 448
199.000717668 77.5484191493 447
199.000717668 77.5484191493 446
199.000717668 77.5484191493 445
199.000717668 77.5484191493 444
199.000717668 77.5484191493 443
199.000717668 77.5484191493 442
198.207886123 77.2394613041 441
198.207886123 77.2394613041 440
199.000717668 77.5484191493 439
197.415054579 76.9305034588 438
198.207886123 77.2394613041 437
197.415054579 76.9305034588 436
196.622223034 76.6215456136 435
197.415054579 76.9305034588 434
197.415054579 76.9305034588 429
196.622223034 76.6215456136 428
195.82939149 76.3125877684 427
195.82939149 76.3125877684 426
195.82939149 76.3125877684 425
195.82939149 76.3125877684 424
196.622223034 76.6215456136 423
196.622223034 76.6215456136 422
195.82939149 76.3125877684 421
195.82939149 76.3125877684 420
195.82939149 76.3125877684 419
195.82939149 76.3125877684 418
195.036559945 76.0036299232 417
195.036559945 76.0036299232 416
194.243728401 75.694672078 415
195.036559945 76.0036299232 414
195.036559945 76.0036299232 413
193.450896856 75.3857142328 411
193.450896856 75.3857142328 410
193.450896856 75.3857142328 409
193.450896856 75.3857142328 408
193.450896856 75.3857142328 407
193.450896856 75.3857142328 406
193.450896856 75.3857142328 405
193.450896856 75.3857142328 404
192.658065312 75.0767563875 403
192.658065312 75.0767563875 402
192.658065312 75.0767563875 401
192.658065312 75.0767563875 400
192.658065312 75.0767563875 399
192.658065312 75.0767563875 398
192.658065312 75.0767563875 397
192.658065312 75.0767563875 396
191.865233767 74.7677985423 395
191.865233767 74.7677985423 394
191.865233767 74.7677985423 393
191.072402223 74.4588406971 392
191.072402223 74.4588406971 391
191.865233767 74.7677985423 390
191.072402223 74.4588406971 389
191.072402223 74.4588406971 388
191.865233767 74.7677985423 387
191.865233767 74.7677985423 386
191.072402223 74.4588406971 385
191.072402223 74.4588406971 384
191.072402223 74.4588406971 383
191.072402223 74.4588406971 382
190.279570678 74.1498828519 381
190.279570678 74.1498828519 380
190.279570678 74.1498828519 379
190.279570678 74.1498828519 378
190.279570678 74.1498828519 377
190.279570678 74.1498828519 376
189.486739134 73.8409250067 375
189.486739134 73.8409250067 374
188.693907589 73.5319671615 373
188.693907589 73.5319671615 372
188.693907589 73.5319671615 371
188.693907589 73.5319671615 370
188.693907589 73.5319671615 369
187.901076045 73.2230093162 368
187.901076045 73.2230093162 367
187.901076045 73.2230093162 366
188.693907589 73.5319671615 365
187.1082445 72.914051471 364
187.901076045 73.2230093162 363
187.901076045 73.2230093162 362
187.1082445 72.914051471 361
187.1082445 72.914051471 360
187.1082445 72.914051471 359
187.1082445 72.914051471 358
187.1082445 72.914051471 357
187.1082445 72.914051471 356
187.1082445 72.914051471 355
186.315412956 72.6050936258 354
187.1082445 72.914051471 353
187.1082445 72.914051471 352
186.315412956 72.6050936258 351
185.522581411 72.2961357806 350
185.522581411 72.2961357806 349
184.729749867 71.9871779354 348
184.729749867 71.9871779354 347
184.729749867 71.9871779354 346
184.729749867 71.9871779354 345
184.729749867 71.9871779354 344
184.729749867 71.9871779354 343
183.936918322 71.6782200902 342
184.729749867 71.9871779354 341
184.729749867 71.9871779354 340
184.729749867 71.9871779354 339
184.729749867 71.9871779354 338
184.729749867 71.9871779354 337
184.729749867 71.9871779354 336
183.936918322 71.6782200902 335
183.936918322 71.6782200902 334
183.936918322 71.6782200902 333
183.936918322 71.6782200902 332
183.936918322 71.6782200902 331
183.144086778 71.3692622449 330
183.144086778 71.3692622449 329
183.144086778 71.3692622449 328
182.351255234 71.0603043997 327
182.351255234 71.0603043997 326
182.351255234 71.0603043997 325
182.351255234 71.0603043997 324
182.351255234 71.0603043997 323
182.351255234 71.0603043997 322
181.558423689 70.7513465545 321
180.765592145 70.4423887093 320
180.765592145 70.4423887093 319
180.765592145 70.4423887093 318
180.765592145 70.4423887093 317
180.765592145 70.4423887093 316
180.765592145 70.4423887093 315
180.765592145 70.4423887093 314
179.9727606 70.1334308641 313
179.9727606 70.1334308641 312
179.179929056 69.8244730189 311
179.179929056 69.8244730189 310
179.179929056 69.8244730189 309
179.179929056 69.8244730189 308
179.9727606 70.1334308641 307
179.179929056 69.8244730189 306
179.179929056 69.8244730189 305
179.179929056 69.8244730189 304
178.387097511 69.5155151736 303
178.387097511 69.5155151736 302
178.387097511 69.5155151736 301
179.179929056 69.8244730189 300
177.594265967 69.2065573284 299
177.594265967 69.2065573284 298
177.594265967 69.2065573284 297
177.594265967 69.2065573284 296
177.594265967 69.2065573284 295
177.594265967 69.2065573284 294
177.594265967 69.2065573284 293
177.594265967 69.2065573284 292
177.594265967 69.2065573284 291
176.801434422 68.8975994832 290
176.008602878 68.588641638 289
176.801434422 68.8975994832 288
176.801434422 68.8975994832 287
176.801434422 68.8975994832 286
176.008602878 68.588641638 285
176.008602878 68.588641638 284
175.215771333 68.2796837928 283
174.422939789 67.9707259476 282
-45.1913980361 -17.6105971773 281
-45.1913980361 -17.6105971773 280
-45.1913980361 -17.6105971773 279
-45.1913980361 -17.6105971773 278
-45.1913980361 -17.6105971773 277
-45.9842295806 -17.9195550225 276
-47.5698926696 -18.537470713 275
-48.3627242141 -18.8464285582 274
-49.9483873031 -19.4643442486 273
-50.7412188476 -19.7733020938 272
-50.7412188476 -19.7733020938 271
-53.1197134811 -20.7001756295 270
-53.9125450256 -21.0091334747 269
-54.7053765701 -21.3180913199 268
-55.4982081145 -21.6270491651 267
-56.291039659 -21.9360070104 266
-56.291039659 -21.9360070104 265
-57.0838712035 -22.2449648556 264
-58.6695342925 -22.862880546 263
-59.462365837 -23.1718383912 262
-60.2551973815 -23.4807962364 261
-61.8408604705 -24.0987119269 260
-61.8408604705 -24.0987119269 259
-62.633692015 -24.4076697721 258
-62.633692015 -24.4076697721 257
-64.219355104 -25.0255854625 256
-64.219355104 -25.0255854625 255
-65.805018193 -25.6435011529 254
-67.3906812819 -26.2614168434 253
-68.9763443709 -26.8793325338 252
-68.9763443709 -26.8793325338 251
-68.9763443709 -26.8793325338 250
-70.5620074599 -27.4972482242 249
-72.1476705489 -28.1151639147 248
-73.7333336379 -28.7330796051 247
-74.5261651824 -29.0420374503 246
-75.3189967269 -29.3509952955 245
-75.3189967269 -29.3509952955 244
-76.9046598159 -29.968910986 243
-78.4903229049 -30.5868266764 242
-80.0759859938 -31.2047423668 241
-81.6616490828 -31.8226580573 240
-81.6616490828 -31.8226580573 239
-84.8329752608 -33.0584894381 238
-87.2114698943 -33.9853629738 237
-88.0043014388 -34.294320819 236
-88.7971329833 -34.6032786642 235
-91.9684591612 -35.8391100451 234
-93.5541222502 -36.4570257355 233
-95.9326168837 -37.3838992712 232
-98.3111115172 -38.3107728068 231
-100.689606151 -39.2376463425 230
-102.27526924 -39.8555620329 229
-103.860932329 -40.4734777233 228
-106.239426962 -41.400351259 227
-107.032258507 -41.7093091042 226
-110.203584685 -42.9451404851 225
-112.582079318 -43.8720140207 224
-114.167742407 -44.4899297111 223
-116.546237041 -45.4168032468 222
-118.13190013 -46.0347189372 221
-118.924731674 -46.3436767824 220
-119.717563219 -46.6526346276 219
-120.510394763 -46.9615924729 218
-122.096057852 -47.5795081633 217
199.237580879 81.5429850626 456
200.025081199 81.8652893514 455
198.450080559 81.2206807739 453
198.450080559 81.2206807739 452
199.237580879 81.5429850626 451
198.450080559 81.2206807739 450
197.66258024 80.8983764851 449
196.87507992 80.5760721963 448
197.66258024 80.8983764851 447
197.66258024 80.8983764851 446
197.66258024 80.8983764851 445
196.87507992 80.5760721963 444
196.87507992 80.5760721963 441
196.87507992 80.5760721963 440
197.66258024 80.8983764851 439
196.87507992 80.5760721963 437
196.87507992 80.5760721963 436
196.0875796 80.2537679075 435
195.300079281 79.9314636187 434
194.512578961 79.6091593299 429
195.300079281 79.9314636187 428
195.300079281 79.9314636187 427
194.512578961 79.6091593299 426
194.512578961 79.6091593299 422
195.300079281 79.9314636187 421
195.300079281 79.9314636187 420
195.300079281 79.9314636187 419
194.512578961 79.6091593299 418
192.937578321 78.9645507524 417
193.725078641 79.2868550411 416
192.937578321 78.9645507524 415
192.937578321 78.9645507524 414
192.937578321 78.9645507524 413
192.937578321 78.9645507524 411
192.150078002 78.6422464636 410
192.150078002 78.6422464636 409
192.150078002 78.6422464636 408
192.150078002 78.6422464636 407
192.150078002 78.6422464636 406
192.937578321 78.9645507524 405
191.362577682 78.3199421748 404
191.362577682 78.3199421748 403
191.362577682 78.3199421748 402
191.362577682 78.3199421748 401
191.362577682 78.3199421748 400
191.362577682 78.3199421748 399
190.575077362 77.997637886 398
190.575077362 77.997637886 397
190.575077362 77.997637886 396
190.575077362 77.997637886 395
190.575077362 77.997637886 394
190.575077362 77.997637886 393
190.575077362 77.997637886 392
190.575077362 77.997637886 391
190.575077362 77.997637886 390
190.575077362 77.997637886 389
190.575077362 77.997637886 388
190.575077362 77.997637886 387
189.787577043 77.6753335972 386
189.787577043 77.6753335972 385
189.787577043 77.6753335972 384
189.787577043 77.6753335972 383
189.000076723 77.3530293084 382
189.000076723 77.3530293084 381
189.000076723 77.3530293084 380
189.000076723 77.3530293084 379
189.000076723 77.3530293084 378
189.000076723 77.3530293084 377
188.212576403 77.0307250196 376
188.212576403 77.0307250196 375
187.425076084 76.7084207309 374
187.425076084 76.7084207309 373
187.425076084 76.7084207309 372
187.425076084 76.7084207309 371
186.637575764 76.3861164421 370
187.425076084 76.7084207309 369
186.637575764 76.3861164421 368
186.637575764 76.3861164421 367
185.850075444 76.0638121533 366
186.637575764 76.3861164421 365
186.637575764 76.3861164421 364
186.637575764 76.3861164421 363
186.637575764 76.3861164421 362
185.850075444 76.0638121533 361
185.850075444 76.0638121533 360
185.850075444 76.0638121533 359
185.850075444 76.0638121533 358
185.850075444 76.0638121533 357
185.850075444 76.0638121533 356
185.850075444 76.0638121533 355
185.850075444 76.0638121533 354
185.062575125 75.7415078645 353
185.062575125 75.7415078645 352
185.062575125 75.7415078645 351
185.062575125 75.7415078645 350
184.275074805 75.4192035757 349
183.487574485 75.0968992869 348
183.487574485 75.0968992869 347
183.487574485 75.0968992869 346
183.487574485 75.0968992869 345
183.487574485 75.0968992869 344
183.487574485 75.0968992869 343
183.487574485 75.0968992869 342
183.487574485 75.0968992869 341
183.487574485 75.0968992869 340
183.487574485 75.0968992869 339
183.487574485 75.0968992869 338
183.487574485 75.0968992869 337
182.700074166 74.7745949982 336
182.700074166 74.7745949982 335
182.700074166 74.7745949982 334
182.700074166 74.7745949982 333
182.700074166 74.7745949982 332
182.700074166 74.7745949982 331
182.700074166 74.7745949982 330
181.912573846 74.4522907094 329
181.125073526 74.1299864206 328
181.125073526 74.1299864206 327
181.125073526 74.1299864206 326
181.125073526 74.1299864206 325
181.125073526 74.1299864206 324
180.337573207 73.8076821318 323
181.125073526 74.1299864206 322
181.125073526 74.1299864206 321
181.125073526 74.1299864206 320
179.550072887 73.485377843 319
179.550072887 73.485377843 318
178.762572567 73.1630735542 317
179.550072887 73.485377843 316
179.550072887 73.485377843 315
179.550072887 73.485377843 314
178.762572567 73.1630735542 313
178.762572567 73.1630735542 312
177.975072248 72.8407692654 311
177.975072248 72.8407692654 310
177.975072248 72.8407692654 309
177.975072248 72.8407692654 308
177.975072248 72.8407692654 307
177.975072248 72.8407692654 306
177.187571928 72.5184649767 305
177.975072248 72.8407692654 304
177.187571928 72.5184649767 303
177.187571928 72.5184649767 302
177.187571928 72.5184649767 301
177.975072248 72.8407692654 300
177.187571928 72.5184649767 299
176.400071608 72.1961606879 298
176.400071608 72.1961606879 297
176.400071608 72.1961606879 296
175.612571289 71.8738563991 295
175.612571289 71.8738563991 294
176.400071608 72.1961606879 293
176.400071608 72.1961606879 292
176.400071608 72.1961606879 291
175.612571289 71.8738563991 290
175.612571289 71.8738563991 289
175.612571289 71.8738563991 288
176.400071608 72.1961606879 287
176.400071608 72.1961606879 286
174.825070969 71.5515521103 285
174.037570649 71.2292478215 284
173.250070329 70.9069435327 283
174.037570649 71.2292478215 282
173.250070329 70.9069435327 281
-44.8875182217 -18.3713444608 280
-44.8875182217 -18.3713444608 279
-44.8875182217 -18.3713444608 278
-44.8875182217 -18.3713444608 277
-44.8875182217 -18.3713444608 276
-46.4625188611 -19.0159530383 275
-48.8250198201 -19.9828659047 274
-49.6125201398 -20.3051701935 273
-50.4000204595 -20.6274744822 272
-50.4000204595 -20.6274744822 271
-51.9750210988 -21.2720830598 270
-53.5500217382 -21.9166916374 269
-53.5500217382 -21.9166916374 268
-55.1250223776 -22.561300215 267
-55.9125226972 -22.8836045037 266
-55.9125226972 -22.8836045037 265
-56.7000230169 -23.2059087925 264
-57.4875233366 -23.5282130813 263
-58.2750236563 -23.8505173701 262
-59.8500242956 -24.4951259477 261
-59.8500242956 -24.4951259477 260
-61.425024935 -25.1397345252 259
-62.2125252547 -25.462038814 258
-62.2125252547 -25.462038814 257
-63.0000255744 -25.7843431028 256
-63.787525894 -26.1066473916 255
-65.3625265334 -26.7512559692 254
-66.9375271728 -27.3958645467 253
-66.9375271728 -27.3958645467 252
-68.5125278121 -28.0404731243 251
-68.5125278121 -28.0404731243 250
-70.0875284515 -28.6850817019 249
-70.0875284515 -28.6850817019 248
-71.6625290908 -29.3296902794 247
-74.8125303696 -30.6189074346 246
-74.8125303696 -30.6189074346 245
-74.8125303696 -30.6189074346 244
-76.3875310089 -31.2635160122 243
-77.9625316483 -31.9081245897 242
-79.5375322876 -32.5527331673 241
-81.112532927 -33.1973417449 240
-82.6875335663 -33.8419503224 239
-85.0500345254 -34.8088631888 238
-86.6250351647 -35.4534717664 237
-87.4125354844 -35.7757760552 236
-88.9875361238 -36.4203846327 235
-91.3500370828 -37.3872974991 234
-92.9250377222 -38.0319060766 233
-95.2875386812 -38.998818943 232
-96.8625393206 -39.6434275206 231
-100.012540599 -40.9326446757 230
-102.375041558 -41.8995575421 229
-103.950042198 -42.5441661196 228
-105.525042837 -43.1887746972 227
-106.312543157 -43.511078986 226
-110.250044755 -45.1226004299 225
-111.825045394 -45.7672090075 224
-113.400046034 -46.4118175851 223
-116.550047313 -47.7010347402 222
-118.125047952 -48.3456433178 221
-118.125047952 -48.3456433178 220
-118.912548272 -48.6679476066 219
-120.487548911 -49.3125561841 218
-126.000051149 -51.5686862056 217
198.613887965 85.2319319073 455
196.268054642 84.2252555462 451
197.049999083 84.5608143332 450
197.049999083 84.5608143332 449
195.486110201 83.8896967591 448
195.486110201 83.8896967591 447
195.486110201 83.8896967591 446
196.268054642 84.2252555462 445
195.486110201 83.8896967591 444
195.486110201 83.8896967591 441
196.268054642 84.2252555462 439
196.268054642 84.2252555462 438
194.704165761 83.5541379721 437
194.704165761 83.5541379721 436
193.92222132 83.2185791851 435
194.704165761 83.5541379721 432
193.92222132 83.2185791851 431
194.704165761 83.5541379721 429
194.704165761 83.5541379721 428
193.140276879 82.883020398 425
193.140276879 82.883020398 423
193.92222132 83.2185791851 422
193.92222132 83.2185791851 421
193.140276879 82.883020398 419
192.358332438 82.547461611 418
191.576387997 82.211902824 417
192.358332438 82.547461611 415
191.576387997 82.211902824 414
192.358332438 82.547461611 413
191.576387997 82.211902824 411
190.794443557 81.8763440369 410
190.794443557 81.8763440369 406
190.794443557 81.8763440369 405
190.012499116 81.5407852499 404
190.794443557 81.8763440369 403
190.012499116 81.5407852499 402
189.230554675 81.2052264629 400
189.230554675 81.2052264629 399
189.230554675 81.2052264629 398
189.230554675 81.2052264629 397
189.230554675 81.2052264629 396
189.230554675 81.2052264629 394
189.230554675 81.2052264629 393
189.230554675 81.2052264629 392
189.230554675 81.2052264629 391
189.230554675 81.2052264629 390
190.012499116 81.5407852499 389
189.230554675 81.2052264629 388
188.448610234 80.8696676758 387
187.666665793 80.5341088888 386
188.448610234 80.8696676758 385
188.448610234 80.8696676758 384
187.666665793 80.5341088888 383
187.666665793 80.5341088888 382
186.884721353 80.1985501017 381
186.884721353 80.1985501017 380
187.666665793 80.5341088888 379
187.666665793 80.5341088888 378
186.884721353 80.1985501017 377
186.884721353 80.1985501017 376
186.884721353 80.1985501017 375
186.102776912 79.8629913147 373
186.102776912 79.8629913147 372
186.102776912 79.8629913147 371
185.320832471 79.5274325277 370
185.320832471 79.5274325277 367
184.53888803 79.1918737406 366
184.53888803 79.1918737406 365
185.320832471 79.5274325277 364
185.320832471 79.5274325277 363
185.320832471 79.5274325277 362
185.320832471 79.5274325277 361
184.53888803 79.1918737406 360
184.53888803 79.1918737406 359
184.53888803 79.1918737406 358
184.53888803 79.1918737406 357
183.756943589 78.8563149536 356
184.53888803 79.1918737406 355
183.756943589 78.8563149536 354
183.756943589 78.8563149536 353
183.756943589 78.8563149536 352
184.53888803 79.1918737406 351
184.53888803 79.1918737406 350
183.756943589 78.8563149536 349
182.974999149 78.5207561666 348
182.193054708 78.1851973795 347
182.974999149 78.5207561666 346
182.974999149 78.5207561666 345
182.193054708 78.1851973795 344
182.193054708 78.1851973795 343
182.193054708 78.1851973795 342
182.193054708 78.1851973795 341
182.193054708 78.1851973795 340
182.193054708 78.1851973795 339
182.193054708 78.1851973795 338
182.193054708 78.1851973795 337
181.411110267 77.8496385925 336
181.411110267 77.8496385925 335
181.411110267 77.8496385925 334
180.629165826 77.5140798055 333
180.629165826 77.5140798055 332
181.411110267 77.8496385925 331
180.629165826 77.5140798055 330
180.629165826 77.5140798055 329
179.065276945 76.8429622314 327
180.629165826 77.5140798055 326
179.847221385 77.1785210184 325
179.847221385 77.1785210184 324
179.847221385 77.1785210184 323
179.847221385 77.1785210184 322
179.065276945 76.8429622314 321
179.065276945 76.8429622314 320
178.283332504 76.5074034443 319
177.501388063 76.1718446573 318
177.501388063 76.1718446573 317
178.283332504 76.5074034443 316
178.283332504 76.5074034443 315
179.065276945 76.8429622314 314
178.283332504 76.5074034443 312
177.501388063 76.1718446573 311
177.501388063 76.1718446573 310
176.719443622 75.8362858703 309
176.719443622 75.8362858703 308
176.719443622 75.8362858703 307
176.719443622 75.8362858703 306
176.719443622 75.8362858703 305
176.719443622 75.8362858703 304
176.719443622 75.8362858703 303
175.937499181 75.5007270832 302
175.937499181 75.5007270832 301
176.719443622 75.8362858703 300
175.155554741 75.1651682962 299
175.155554741 75.1651682962 298
175.155554741 75.1651682962 297
174.3736103 74.8296095092 294
175.155554741 75.1651682962 293
175.155554741 75.1651682962 292
174.3736103 74.8296095092 291
174.3736103 74.8296095092 290
174.3736103 74.8296095092 289
174.3736103 74.8296095092 288
174.3736103 74.8296095092 287
175.155554741 75.1651682962 286
173.591665859 74.4940507221 285
172.809721418 74.1584919351 284
172.809721418 74.1584919351 283
172.809721418 74.1584919351 282
-43.7888886851 -18.791292074 281
-43.7888886851 -18.791292074 280
-44.5708331259 -19.1268508611 279
-43.7888886851 -18.791292074 278
-43.7888886851 -18.791292074 277
-44.5708331259 -19.1268508611 276
-47.6986108892 -20.4690860092 275
-48.48055533 -20.8046447963 274
-49.2624997708 -21.1402035833 273
-50.0444442116 -21.4757623703 272
-50.0444442116 -21.4757623703 271
-51.6083330932 -22.1468799444 270
-52.390277534 -22.4824387315 269
-53.9541664156 -23.1535563055 268
-54.7361108564 -23.4891150926 267
-54.7361108564 -23.4891150926 266
-55.5180552972 -23.8246738796 265
-56.299999738 -24.1602326666 264
