35.3553390593 61.2372435696 269
37.1231060123 64.2991057481 266
50.9116882454 88.1816307402 257
48.0832611207 83.2826512546 254
48.7903679019 84.507396126 251
50.5581348548 87.5692583045 248
51.6187950266 89.4063756116 245
52.3259018078 90.631120483 242
54.4472221514 94.3053550972 239
55.1543289326 95.5300999685 236
55.8614357137 96.7548448399 233
57.2756492761 99.2043345827 230
57.9827560573 100.429079454 227
59.3969696197 102.878569197 224
60.4576297914 104.715686504 221
62.9325035256 109.002293554 218
63.6396103068 110.227038425 215
65.7609306503 113.901273039 212
59.7505230103 103.490941633 209
59.3969696197 102.878569197 206
59.0434162291 102.266196761 203
59.3969696197 102.878569197 200
59.7505230103 103.490941633 197
59.3969696197 102.878569197 194
59.7505230103 103.490941633 191
59.3969696197 102.878569197 188
59.0434162291 102.266196761 185
58.6898628385 101.653824326 182
58.3363094479 101.04145189 179
59.0434162291 102.266196761 176
59.0434162291 102.266196761 173
59.3969696197 102.878569197 170
59.7505230103 103.490941633 167
59.3969696197 102.878569197 164
59.3969696197 102.878569197 161
59.0434162291 102.266196761 158
59.0434162291 102.266196761 155
58.3363094479 101.04145189 152
50.2045814642 86.9568858688 146
27.5771644663 47.7650499843 143
26.5165042945 45.9279326772 140
20.5060966544 35.5176012704 137
-53.5330081461 -96.4480017358 311
-52.8466875288 -95.211488893 308
-52.8466875288 -95.211488893 305
17.1580154314 30.9128210692 302
18.530656666 33.3858467547 299
19.9032979005 35.8588724402 296
21.275939135 38.3318981258 293
22.9917406781 41.4231802327 290
24.021221604 43.2779494968 287
25.3938628385 45.7509751824 284
27.1096643817 48.8422572893 281
28.4823056162 51.3152829748 278
24.021221604 43.2779494968 275
27.1096643817 48.8422572893 272
36.031832406 64.9169242453 266
46.6698019735 84.0828733081 254
48.042443208 86.5558989937 251
38.4339545664 69.2447191949 248
50.4445653684 90.8836939434 245
50.7877256771 91.5019503647 242
52.5035272202 94.5932324717 239
53.8761684547 97.0662581572 236
54.562489072 98.302771 233
41.8655576527 75.4272834088 230
56.2782906151 101.394053107 227
57.307771541 103.248822371 224
58.6804127755 105.721848057 221
60.7393746273 109.431386585 218
61.7688555532 111.286155849 215
64.1709777136 115.613950799 212
57.6509318496 103.867078792 209
57.6509318496 103.867078792 206
57.9940921583 104.485335214 203
57.9940921583 104.485335214 200
57.9940921583 104.485335214 197
58.3372524669 105.103591635 194
58.3372524669 105.103591635 191
57.6509318496 103.867078792 188
57.9940921583 104.485335214 185
57.6509318496 103.867078792 182
56.9646112324 102.63056595 179
57.307771541 103.248822371 176
57.307771541 103.248822371 173
57.9940921583 104.485335214 170
57.6509318496 103.867078792 167
57.6509318496 103.867078792 164
57.9940921583 104.485335214 161
57.6509318496 103.867078792 158
57.307771541 103.248822371 155
57.6509318496 103.867078792 152
26.7665040731 48.2240008679 143
26.0801834558 46.9874880251 140
20.5896185177 37.095385283 137
-51.8964157371 -97.3383893109 311
-51.2310770739 -96.0904612428 308
-51.2310770739 -96.0904612428 305
16.6334665824 31.1982017022 302
18.2968132407 34.3180218724 299
19.6274905673 36.8138780086 296
20.9581678938 39.3097341448 293
22.2888452204 41.805590281 290
23.2868532154 43.6774823831 287
24.617530542 46.1733385193 284
25.9482078686 48.6691946554 281
27.2788851952 51.1650507916 278
21.6235065571 40.5576622129 275
31.2709171749 58.6526192001 272
32.6015945015 61.1484753363 269
34.9302798231 65.5162235746 266
48.5697224207 91.0987489704 254
46.5737064308 87.3549647662 251
46.9063757624 87.9789288002 248
37.9243038079 71.131899881 245
49.235061084 92.3466770385 242
51.2310770739 96.0904612428 239
51.8964157371 97.3383893109 236
52.8944237321 99.210281413 233
53.892431727 101.082173515 230
54.890439722 102.954065617 227
55.5557783853 104.201993685 224
56.2211170486 105.449921753 221
58.5498023701 109.817669992 218
59.8804796967 112.313526128 215
61.8764956866 116.057310332 212
62.5418343499 117.3052384 209
57.5517943752 107.94577789 206
56.5537863802 106.073885788 203
56.8864557119 106.697849822 200
56.8864557119 106.697849822 197
57.2191250435 107.321813856 194
57.2191250435 107.321813856 191
56.8864557119 106.697849822 188
56.5537863802 106.073885788 185
56.8864557119 106.697849822 182
56.8864557119 106.697849822 179
56.8864557119 106.697849822 176
56.8864557119 106.697849822 173
56.8864557119 106.697849822 170
56.8864557119 106.697849822 167
56.5537863802 106.073885788 164
56.8864557119 106.697849822 161
56.5537863802 106.073885788 158
56.2211170486 105.449921753 155
56.2211170486 105.449921753 152
26.6135465319 49.9171227235 143
25.9482078686 48.6691946554 140
19.2948212356 36.1899139746 137
-50.2450185844 -98.2010086886 311
-49.6008516795 -96.9420213977 308
-49.6008516795 -96.9420213977 305
16.1041726232 31.474682272 302
17.7145898855 34.6221504992 299
19.0029236954 37.1401250809 296
20.2912575052 39.6580996627 293
21.5795913151 42.1760742445 290
22.8679251249 44.6940488262 287
23.8341754823 46.5825297625 284
25.1225092922 49.1005043443 281
26.4108431021 51.618478926 278
29.3095941742 57.283921735 275
30.2758445316 59.1724026713 272
31.5641783415 61.6903772531 269
33.8187625087 66.0968327712 266
34.7850128661 67.9853137075 263
45.7358502499 89.3880976524 251
46.3800171548 90.6470849433 248
37.6837639383 73.6507565164 245
47.9904344171 93.7945531705 242
49.6008516795 96.9420213977 239
50.5671020369 98.830502334 236
51.5333523943 100.71898327 233
52.1775192992 101.977970561 230
52.8216862041 103.236957852 227
54.4321034664 106.384426079 224
54.4321034664 106.384426079 221
56.3646041812 110.161387952 218
57.6529379911 112.679362534 215
59.2633552534 115.826830761 212
60.2296056108 117.715311697 209
56.3646041812 110.161387952 206
55.3983538238 108.272907016 203
55.3983538238 108.272907016 200
55.3983538238 108.272907016 197
55.7204372763 108.902400661 194
55.3983538238 108.272907016 191
55.3983538238 108.272907016 188
55.0762703714 107.64341337 185
55.0762703714 107.64341337 182
55.0762703714 107.64341337 179
55.0762703714 107.64341337 176
55.0762703714 107.64341337 173
55.0762703714 107.64341337 170
55.3983538238 108.272907016 167
55.0762703714 107.64341337 164
55.0762703714 107.64341337 161
55.0762703714 107.64341337 158
55.3983538238 108.272907016 155
48.6346013221 95.0535404614 146
26.0887596496 50.9889852806 143
25.1225092922 49.1005043443 140
18.6808402429 36.5106314355 137
-48.57928779 -99.0356137852 311
-47.956476408 -97.765926429 308
-47.956476408 -97.765926429 305
15.5702845481 31.7421839055 302
17.1273130029 34.9164022961 299
18.6843414577 38.0906206866 296
19.9299642215 40.6299953991 293
20.8641812944 42.5345264334 290
22.1098040583 45.0739011458 287
23.0440211311 46.9784321802 284
24.6010495859 50.1526505707 281
25.5352666588 52.0571816051 278
18.6843414577 38.0906206866 275
28.6493235684 58.4056183862 272
29.8949463323 60.9449930986 269
31.7633804781 64.7540551673 266
46.3994479532 94.5917080385 251
37.9914942973 77.4509287295 248
46.0880422623 93.9568643604 245
46.7108536442 95.2265517166 242
47.956476408 97.765926429 239
48.8906934809 99.6704574634 236
49.8249105538 101.574988498 233
50.4477219357 102.844675854 230
51.6933446996 105.384050566 227
52.0047503905 106.018894244 224
52.9389674634 107.923425279 221
54.4959959182 111.097643669 218
55.7416186821 113.637018382 215
57.2986471369 116.811236772 212
58.5442699007 119.350611485 209
59.7898926646 121.889986197 206
54.4959959182 111.097643669 203
54.4959959182 111.097643669 200
54.1845902273 110.462799991 197
54.4959959182 111.097643669 194
54.4959959182 111.097643669 191
54.8074016092 111.732487347 188
54.1845902273 110.462799991 185
54.1845902273 110.462799991 182
53.8731845363 109.827956313 179
53.8731845363 109.827956313 176
53.8731845363 109.827956313 173
53.8731845363 109.827956313 170
54.1845902273 110.462799991 167
54.1845902273 110.462799991 164
54.1845902273 110.462799991 161
54.1845902273 110.462799991 158
54.1845902273 110.462799991 155
53.8731845363 109.827956313 152
24.9124552769 50.7874942488 143
24.6010495859 50.1526505707 140
17.4387186938 35.5512459742 137
-46.899698545 -99.841966509 311
-46.5990594518 -99.2019539032 308
-46.2984203585 -98.5619412974 305
15.0319546619 32.0006302914 302
16.535150128 35.2006933205 299
18.0383455942 38.4007563496 296
18.9402628739 40.3207941671 293
20.4434583401 43.5208571962 290
21.3453756198 45.4408950137 287
22.5479319928 48.000945437 284
23.7504883657 50.5609958603 281
24.9530447387 53.1210462836 278
26.4562402049 56.3211093128 275
27.3581574846 58.2411471303 272
28.8613529508 61.4412101594 269
30.6651875102 65.2812857944 266
33.9722175358 72.3214244585 260
36.0766911885 76.8015126992 257
45.9977812653 97.9219286915 248
44.7952248923 95.3618782682 245
45.3965030788 96.6419034799 242
46.899698545 99.841966509 239
47.5009767315 101.121991721 236
48.102254918 102.402016932 233
49.0041721977 104.32205475 230
50.2067285706 106.882105173 227
50.5073676639 107.522117779 224
51.7099240368 110.082168202 221
52.01056313 110.722180808 218
52.6118413165 112.00220602 215
54.7163149692 116.482294261 212
56.2195104354 119.68235729 209
57.4220668083 122.242407713 206
53.8143976895 114.562256443 203
53.213119503 113.282231231 200
53.213119503 113.282231231 197
53.213119503 113.282231231 194
53.213119503 113.282231231 191
53.213119503 113.282231231 188
52.9124804098 112.642218626 185
52.9124804098 112.642218626 182
52.9124804098 112.642218626 179
52.9124804098 112.642218626 176
52.9124804098 112.642218626 173
52.9124804098 112.642218626 170
52.6118413165 112.00220602 167
52.9124804098 112.642218626 164
52.9124804098 112.642218626 161
52.6118413165 112.00220602 158
52.6118413165 112.00220602 155
52.3112022233 111.362193414 152
49.3048112909 104.962067356 146
24.3517665522 51.841021072 140
16.2345110348 34.5606807147 137
-45.2067299942 -100.619836828 311
-44.6271565327 -99.3298389197 308
-44.6271565327 -99.3298389197 305
14.7791232673 32.8949466552 302
15.9382701902 35.4749424713 299
17.3872038439 38.6999372414 296
18.5463507668 41.2799330575 293
19.415710959 43.2149299196 290
20.574857882 45.7949257357 287
21.7340048049 48.3749215518 284
22.8931517278 50.9549173679 281
24.0522986507 53.534913184 278
25.5012323044 56.7599079541 275
26.3705924966 58.6949048162 272
27.8195261502 61.9198995863 269
29.5582465346 65.7898933104 266
33.0356873034 73.5298807587 260
35.0641944185 78.0448734369 257
44.9169432634 99.9748378737 248
43.4680096098 96.7498431036 245
44.0475830712 98.0398410116 242
44.9169432634 99.9748378737 239
45.4965167249 101.264835782 236
46.6556636478 103.844831598 233
47.8148105707 106.424827414 230
48.1045973015 107.069826368 227
48.9739574937 109.00482323 224
49.8433176859 110.939820092 221
50.4228911473 112.229818 218
51.2922513395 114.164814862 215
52.7411849932 117.389809632 212
54.4799053776 121.259803356 209
55.3492655698 123.194800219 206
55.9288390312 124.484798127 203
51.5820380702 114.809813816 200
51.5820380702 114.809813816 197
51.871824801 115.45481277 194
51.5820380702 114.809813816 191
51.5820380702 114.809813816 188
51.2922513395 114.164814862 185
51.2922513395 114.164814862 182
51.5820380702 114.809813816 179
51.5820380702 114.809813816 176
51.2922513395 114.164814862 173
51.2922513395 114.164814862 170
51.2922513395 114.164814862 167
51.0024646088 113.519815908 164
51.0024646088 113.519815908 161
51.0024646088 113.519815908 158
50.7126778781 112.874816954 155
50.7126778781 112.874816954 152
46.9454503785 104.489830552 149
47.52502384 105.77982846 146
23.4727251893 52.2449152759 140
15.6484834595 34.8299435173 137
-43.5008650988 -101.369002834 311
-42.9431617001 -100.069400234 308
-42.9431617001 -100.069400234 305
14.2214366669 33.1398663113 302
15.3368434643 35.7390715122 299
16.7311019611 38.9880780133 296
17.8465087585 41.5872832141 293
18.6830638565 43.5366871148 290
19.7984706539 46.1358923157 287
20.9138774513 48.7350975166 284
22.0292842487 51.3343027175 281
23.1446910462 53.9335079183 278
24.2600978436 56.5327131192 275
25.375504641 59.1319183201 272
26.7697631377 62.3809248212 269
28.1640216345 65.6299313223 266
29.5582801312 68.8789378234 263
33.1833522228 77.3263547263 257
34.8564624189 81.2251625276 254
43.2220133994 100.719201534 245
42.6643100007 99.4195989338 242
43.5008650988 101.369002834 239
44.6162718962 103.968208035 236
45.4528269943 105.917611936 233
46.010530393 107.217214536 230
46.847085491 109.166618437 227
47.1259371904 109.816419737 224
47.6836405891 111.116022338 221
48.7990473865 113.715227539 218
49.0778990858 114.365028839 215
50.1933058832 116.96423404 212
51.3087126806 119.563439241 209
52.7029711774 122.812445742 206
53.5395262754 124.761849642 203
51.0298609813 118.91363794 200
50.4721575826 117.61403534 197
50.1933058832 116.96423404 194
50.4721575826 117.61403534 191
49.9144541839 116.31443274 188
49.9144541839 116.31443274 185
49.9144541839 116.31443274 182
50.1933058832 116.96423404 179
49.9144541839 116.31443274 176
50.1933058832 116.96423404 173
50.1933058832 116.96423404 170
49.9144541839 116.31443274 167
49.9144541839 116.31443274 164
49.6356024845 115.664631439 161
49.6356024845 115.664631439 158
49.3567507852 115.014830139 155
45.1739752949 105.267810636 149
46.010530393 107.217214536 146
22.5869876475 52.6339053179 140
15.3368434643 35.7390715122 137
-41.7825904993 -102.089250811 311
-41.2469162622 -100.780414262 308
-41.2469162622 -100.780414262 305
13.6596930479 33.3753319959 302
14.7310415222 35.9930050936 299
16.0702271151 39.2650964658 296
17.1415755895 41.8827695635 293
18.2129240638 44.5004426612 290
19.0164354196 46.4636974845 287
20.0877838939 49.0813705822 284
21.1591323683 51.69904368 281
22.4983179612 54.9711350521 278
23.5696664355 57.5888081498 275
24.3731777913 59.5520629731 272
25.7123633842 62.8241543453 269
27.0515489771 66.0962457174 266
28.1228974515 68.7139188151 263
31.6047799931 77.2213563827 257
33.4796398232 81.8022843037 254
35.3544996533 86.3832122247 251
41.2469162622 100.780414262 242
42.0504276179 102.743669085 239
42.5861018551 104.052505634 236
43.1217760923 105.361342183 233
44.4609616852 108.633433555 230
44.7287988038 109.28785183 227
45.5323101595 111.251106653 224
46.3358215153 113.214361476 221
47.1393328711 115.1776163 218
47.4071699896 115.832034574 215
48.478518464 118.449707672 212
49.8177040569 121.721799044 209
50.6212154127 123.685053867 206
51.1568896498 124.993890416 203
51.4247267684 125.648308691 200
49.0141927012 119.758544221 197
49.0141927012 119.758544221 194
48.7463555826 119.104125946 191
48.7463555826 119.104125946 188
49.0141927012 119.758544221 185
48.478518464 118.449707672 182
48.478518464 118.449707672 179
48.478518464 118.449707672 176
48.478518464 118.449707672 173
48.2106813454 117.795289397 170
48.478518464 118.449707672 167
48.478518464 118.449707672 164
48.478518464 118.449707672 161
48.2106813454 117.795289397 158
48.2106813454 117.795289397 155
44.1931245666 107.979015281 149
44.7287988038 109.28785183 146
21.962643724 53.6622985033 140
14.7310415222 35.9930050936 137
-40.0523963764 -102.780375289 311
-39.7956502458 -102.121526729 308
-39.5389041151 -101.46267817 305
13.0940526615 33.6012765367 302
14.3777833146 36.8955193344 299
15.4047678371 39.5309135726 296
16.4317523595 42.1663078108 293
17.458736882 44.801702049 290
18.2289752739 46.7782477276 287
19.512705927 50.0724905253 284
20.2829443188 52.049036204 281
21.5666749719 55.3432790017 278
22.5936594944 57.9786732398 275
23.6206440168 60.614067478 272
24.3908824087 62.5906131567 269
20.79643658 53.366733323 266
26.9583437149 69.1790987521 263
30.0392972823 77.0852814666 257
31.579774066 81.0383728239 254
33.8904892415 86.9680098598 251
35.9444582865 92.2387983361 248
41.0793808988 105.415769527 242
39.7956502458 102.121526729 239
40.8226347682 104.756920967 236
41.5928731601 106.733466646 233
42.3631115519 108.710012325 230
42.8766038132 110.027709444 227
43.646842205 112.004255122 224
44.1603344663 113.321952242 221
44.9305728581 115.29849792 218
45.1873189887 115.95734648 215
46.4710496418 119.251589277 212
47.7547802949 122.545832075 209
48.5250186868 124.522377754 206
49.2952570786 126.498923432 203
49.8087493398 127.816620551 200
48.7817648174 125.181226313 197
47.4980341643 121.886983516 194
47.2412880337 121.228134956 191
47.4980341643 121.886983516 188
46.9845419031 120.569286396 185
46.9845419031 120.569286396 182
46.7277957724 119.910437837 179
46.7277957724 119.910437837 176
46.7277957724 119.910437837 173
46.7277957724 119.910437837 170
46.7277957724 119.910437837 167
46.7277957724 119.910437837 164
46.7277957724 119.910437837 161
46.4710496418 119.251589277 158
46.4710496418 119.251589277 155
46.2143035112 118.592740718 152
42.3631115519 108.710012325 149
43.1333499438 110.686558003 146
21.0531827107 54.0255818826 140
13.6075449227 34.9189736558 137
-38.3107763108 -103.442179107 311
-37.819612512 -102.115997324 308
-37.819612512 -102.115997324 305
12.5246768708 33.8176354774 302
13.9981682674 37.7961808277 299
14.9804958651 40.4485443945 296
15.9628234628 43.1009079614 293
16.9451510606 45.7532715282 290
17.9274786583 48.4056350951 287
18.909806256 51.0579986619 284
19.4009700548 52.3841804454 281
20.628879552 55.6996349039 278
21.6112071497 58.3519984708 275
22.5935347474 61.0043620376 272
23.3302804457 62.9936347128 269
24.8037718423 66.972180063 266
20.628879552 55.6996349039 263
27.0140089371 72.9399980885 260
28.4875003337 76.9185434387 257
29.9609917303 80.897088789 254
31.6800650262 85.538725031 251
33.3991383222 90.180361273 248
35.3637935177 95.4850884067 245
39.7842677074 107.420724458 239
39.2931039085 106.094542674 236
39.7842677074 107.420724458 233
40.7665953051 110.073088024 230
41.0121772045 110.736178916 227
41.7489229028 112.725451591 224
42.4856686011 114.714724266 221
42.9768323999 116.04090605 218
43.9591599977 118.693269617 215
44.2047418971 119.356360508 212
44.6959056959 120.682542292 209
45.9238151931 123.99799675 206
46.6605608914 125.987269426 203
47.1517246902 127.313451209 200
46.9061427908 126.650360317 197
46.1693970925 124.661087642 194
46.1693970925 124.661087642 191
45.6782332937 123.334905859 188
45.9238151931 123.99799675 185
45.6782332937 123.334905859 182
45.6782332937 123.334905859 179
45.4326513942 122.671814967 176
45.4326513942 122.671814967 173
45.4326513942 122.671814967 170
45.4326513942 122.671814967 167
45.1870694948 122.008724075 164
44.9414875954 121.345633184 161
44.9414875954 121.345633184 158
44.9414875954 121.345633184 155
41.257759104 111.399269808 149
42.2400867017 114.051633375 146
20.628879552 55.6996349039 140
13.0158406697 35.1438172608 137
-36.5582271431 -104.07447347 311
-36.3238795332 -103.40732941 308
-36.0895319233 -102.740185349 305
12.1860757144 34.6914911568 302
13.3578137638 38.0272114604 299
14.2952042034 40.6957877032 296
15.232594643 43.364363946 293
16.4043326924 46.7000842496 290
17.1073755221 48.7015164317 287
18.0447659617 51.3700926745 284
18.7478087913 53.3715248566 281
19.6851992309 56.0401010995 278
20.6225896705 58.7086773423 275
21.55998011 61.3772535851 272
22.4973705496 64.045829828 269
23.6691085991 67.3815501315 266
24.6064990386 70.0501263743 263
25.7782370881 73.3858466779 260
27.4186703573 78.0558551028 257
29.9964940661 85.3944397706 251
32.1056225552 91.398736317 248
33.2773606046 94.7344566205 245
38.901703242 110.745914078 236
38.1986604124 108.744481895 233
38.6673556321 110.078770017 230
39.3703984618 112.080202199 227
40.0734412915 114.081634381 224
40.7764841212 116.083066563 221
41.2451793409 117.417354685 218
41.9482221706 119.418786867 215
42.6512650003 121.420219049 212
43.1199602201 122.75450717 209
43.35430783 123.421651231 206
44.2916982695 126.090227474 203
45.2290887091 128.758803717 200
44.7603934893 127.424515595 197
44.5260458794 126.757371535 194
44.0573506596 125.423083413 191
44.0573506596 125.423083413 188
44.0573506596 125.423083413 185
43.8230030498 124.755939352 182
44.0573506596 125.423083413 179
43.8230030498 124.755939352 176
43.8230030498 124.755939352 173
43.8230030498 124.755939352 170
43.5886554399 124.088795292 167
43.5886554399 124.088795292 164
43.35430783 123.421651231 161
43.35430783 123.421651231 158
43.1199602201 122.75450717 155
39.8390936816 113.41449032 149
38.6673556321 110.078770017 146
19.9195468408 56.7072451602 140
12.6547709342 36.0257792782 137
-34.7952488315 -104.677078001 311
-34.3491558978 -103.33506418 308
-34.3491558978 -103.33506418 305
11.5984162772 34.8923593335 302
12.7136486115 38.2473938848 299
13.8288809459 41.6024284362 296
14.4980203465 43.6154491669 293
15.8362991477 47.6414906285 290
16.2823920814 48.983504449 287
17.1745779489 51.6675320901 284
18.0667638164 54.3515597311 281
18.9589496838 57.0355873721 278
19.6280890845 59.0486081029 275
20.5202749519 61.732635744 272
21.4124608194 64.416663385 269
22.5276931537 67.7716979363 266
23.4198790212 70.4557255774 263
24.7581578224 74.4817670389 260
28.1038548255 84.5468706928 251
31.4495518285 94.6119743467 245
33.0108770966 99.3090227186 242
36.8026670334 110.716140193 233
37.0257135002 111.387147103 230
37.471806434 112.729160924 227
38.1409458346 114.742181655 224
39.033131702 117.426209296 221
39.4792246358 118.768223116 218
39.9253175695 120.110236937 215
40.3714105033 121.452250757 212
40.817503437 122.794264578 209
41.2635963707 124.136278398 206
42.1557822382 126.820306039 203
43.0479681057 129.50433368 200
43.0479681057 129.50433368 197
42.6018751719 128.16231986 194
42.6018751719 128.16231986 191
42.3788287051 127.491312949 188
42.1557822382 126.820306039 185
42.1557822382 126.820306039 182
42.1557822382 126.820306039 179
41.9327357713 126.149299129 176
41.9327357713 126.149299129 173
41.9327357713 126.149299129 170
41.7096893045 125.478292219 167
41.4866428376 124.807285308 164
41.4866428376 124.807285308 161
41.2635963707 124.136278398 158
41.4866428376 124.807285308 155
39.2561781689 118.097216206 146
12.2675556778 36.9053800643 137
-33.0223443095 -105.24982079 311
-32.8106626152 -104.575142451 308
-32.5989809209 -103.900464113 305
11.0074481032 35.0832735966 302
12.0658565746 38.4566652886 299
13.3359467404 42.504735319 296
13.9709918232 44.5287703342 293
15.0294002947 47.9021620262 290
15.4527636833 49.251518703 287
16.2994904605 51.9502320566 284
17.1462172376 54.6489454101 281
17.9929440148 57.3476587637 278
18.6279890977 59.3716937789 275
19.6863975691 62.7450854709 272
20.321442652 64.7691204861 269
21.3798511235 68.1425121781 266
22.2265779006 70.8412255317 263
23.2849863721 74.2146172236 260
24.1317131492 76.9133305772 257
25.401803315 80.9614006076 254
26.883575175 85.6841489764 251
28.3653470351 90.4068973452 248
29.6354372008 94.4549673755 245
31.3288907552 99.8523940827 242
32.8106626152 104.575142451 239
34.5041161695 109.972569159 236
35.562524641 113.345960851 233
34.7157978638 110.647247497 230
35.3508429467 112.671282512 227
35.9858880296 114.695317527 224
36.8326148067 117.394030881 221
37.044296501 118.068709219 218
37.6793415839 120.092744235 215
38.5260683611 122.791457588 212
38.7377500554 123.466135927 209
39.161113444 124.815492603 206
40.0078402211 127.514205957 203
40.4312036097 128.863562634 200
40.4312036097 128.863562634 197
40.4312036097 128.863562634 194
40.642885304 129.538240972 191
40.2195219154 128.188884295 188
40.2195219154 128.188884295 185
40.0078402211 127.514205957 182
40.0078402211 127.514205957 179
39.7961585268 126.839527619 176
40.0078402211 127.514205957 173
40.0078402211 127.514205957 170
40.0078402211 127.514205957 167
39.7961585268 126.839527619 164
39.7961585268 126.839527619 161
39.5844768325 126.16484928 158
39.5844768325 126.16484928 155
39.3727951382 125.490170942 152
36.1975697239 115.369995866 149
36.6209331125 116.719352543 146
12.0658565746 38.4566652886 137
-31.2400193421 -105.792538449 311
-30.8395062736 -104.436223854 308
-30.8395062736 -104.436223854 305
10.4133397807 35.264179483 302
11.4146224519 38.6549659718 299
12.6161616574 42.7239097583 296
13.4171877944 45.4365389493 293
14.2182139314 48.1491681403 290
15.0192400683 50.8617973313 287
15.8202662053 53.5744265223 284
16.2207792738 54.9307411178 281
17.222061945 58.3215276066 278
17.8228315478 60.3559994998 275
18.2233446162 61.7123140953 272
19.0243707532 64.4249432863 269
20.2259099587 68.4938870728 266
20.8266795614 70.5283589661 263
16.6212923423 56.2870557133 260
22.8292449039 77.3099319436 257
24.0307841093 81.3788757301 254
25.0320667806 84.7696622188 251
26.6341190545 90.1949206008 248
27.6354017257 93.5857070896 245
28.636684397 96.9764935783 242
30.6392497394 103.758066556 239
31.6405324106 107.148853045 236
33.6430977531 113.930426022 233
34.6443804243 117.321212511 230
33.6430977531 113.930426022 227
34.2438673558 115.964897915 224
35.0448934928 118.677527106 221
35.8459196298 121.390156297 218
36.2464326982 122.746470893 215
37.2477153695 126.137257382 212
36.847202301 124.780942786 209
38.0487415064 128.849886573 206
38.2489980407 129.52804387 203
39.0500241777 132.240673061 200
38.6495111092 130.884358466 197
39.4505372462 133.596987657 194
38.8497676434 131.562515764 191
39.0500241777 132.240673061 188
39.0500241777 132.240673061 185
38.6495111092 130.884358466 182
35.6456630955 120.711999 179
38.6495111092 130.884358466 176
38.2489980407 129.52804387 173
38.0487415064 128.849886573 170
38.0487415064 128.849886573 167
37.8484849722 128.171729275 164
37.8484849722 128.171729275 161
37.8484849722 128.171729275 158
37.8484849722 128.171729275 155
37.648228438 127.493571977 152
34.6443804243 117.321212511 149
35.245150027 119.355684404 146
35.245150027 119.355684404 143
11.6148789862 39.3331232695 137
-29.448782382 -106.305076155 311
-29.0712338899 -104.942190563 308
-29.0712338899 -104.942190563 305
10.00503504 36.1164681807 302
10.7601320242 38.8422393642 299
11.8927775004 42.9308961393 296
12.6478744846 45.6566673228 293
13.4029714687 48.3824385062 290
14.1580684529 51.1082096897 287
14.913165437 53.8339808731 284
15.4794881751 55.8783092607 281
16.2345851593 58.6040804442 278
16.8009078974 60.6484088317 275
17.5560048816 63.3741800152 272
18.1223276197 65.4185084028 269
19.2549730959 69.507165178 266
19.632521588 70.8700507697 263
20.5763928182 74.277264749 260
21.5202640484 77.6844787283 257
22.6529095246 81.7731355035 254
23.7855550008 85.8617922787 251
24.729426231 89.269006258 248
26.0508459533 94.039105829 245
27.3722656756 98.8092054 242
28.5049111518 102.897862175 239
30.0151051201 108.349404542 236
30.9589763503 111.756618521 233
32.4691703186 117.208160888 230
32.8467188107 118.57104648 227
32.2803960726 116.526718092 224
33.0354930567 119.252489276 221
33.4130415488 120.615374868 218
33.7905900409 121.978260459 215
34.1681385329 123.341146051 212
34.545687025 124.704031643 209
34.545687025 124.704031643 206
35.1120097631 126.74836003 203
35.4895582552 128.111245622 200
36.2446552394 130.837016806 197
36.4334294854 131.518459601 194
36.4334294854 131.518459601 191
36.6222037314 132.199902397 188
36.4334294854 131.518459601 185
36.4334294854 131.518459601 182
36.4334294854 131.518459601 179
36.2446552394 130.837016806 176
36.0558809933 130.15557401 173
35.8671067473 129.474131214 170
35.8671067473 129.474131214 167
35.8671067473 129.474131214 164
36.0558809933 130.15557401 161
35.8671067473 129.474131214 158
35.6783325012 128.792688418 155
35.4895582552 128.111245622 152
33.0354930567 119.252489276 146
33.2242673027 119.933932072 143
11.1376805163 40.2051249559 137
-27.6491444239 -106.787287692 311
-27.4719063187 -106.102753797 308
-27.2946682134 -105.418219901 305
9.39361957993 36.2802964595 302
10.2798101063 39.7029659368 299
11.1660006327 43.1256354141 296
11.8749530539 45.8637709959 293
12.583905475 48.6019065778 290
13.2928578961 51.3400421596 287
14.0018103173 54.0781777415 284
14.5335246331 56.1317794279 281
15.2424770542 58.8699150097 278
15.7741913701 60.9235166961 275
16.4831437912 63.661652278 272
17.1920962123 66.3997878598 269
17.9010486335 69.1379234416 266
18.4327629493 71.191525128 263
19.3189534757 74.6141946053 260
20.2051440021 78.0368640826 257
21.2685726338 82.1440674554 254
22.1547631602 85.5667369327 251
23.3954298972 90.358474201 248
24.1043823183 93.0966097828 245
25.5222871606 98.5728809465 242
26.5857157923 102.680084319 239
28.0036206345 108.156355483 236
29.2442873715 112.948092751 233
30.3077160032 117.055296124 230
31.1939065296 120.477965601 227
30.6621922137 118.424363915 224
30.6621922137 118.424363915 221
31.3711446349 121.162499497 218
31.9028589507 123.216101183 215
32.080097056 123.900635079 212
32.4345732666 125.26970287 209
32.4345732666 125.26970287 206
32.7890494771 126.63877066 203
32.9662875824 127.323304556 200
33.6752400035 130.061440138 197
34.0297162141 131.430507929 194
34.2069543194 132.115041824 191
34.3841924247 132.79957572 188
34.3841924247 132.79957572 185
34.2069543194 132.115041824 182
34.2069543194 132.115041824 179
34.0297162141 131.430507929 176
34.0297162141 131.430507929 173
33.8524781088 130.745974033 170
33.8524781088 130.745974033 167
33.8524781088 130.745974033 164
33.8524781088 130.745974033 161
33.8524781088 130.745974033 158
33.6752400035 130.061440138 155
33.320763793 128.692372347 152
29.9532397926 115.686228333 149
31.0166684243 119.793431706 146
31.1939065296 120.477965601 143
10.6342863169 41.0720337277 137
-25.8416188595 -107.239035499 311
-25.6759674566 -106.551605784 308
-25.5103160537 -105.864176069 305
8.77952435613 36.433774881 302
9.7734327738 40.5583531694 299
10.4360383856 43.3080720284 296
11.4299468033 47.4326503168 293
11.7612496092 48.8075097463 290
12.7551580268 52.9320880347 287
13.0864608327 54.3069474641 284
13.7490664445 57.0566663231 281
14.4116720563 59.806385182 278
15.0742776681 62.556104041 275
15.5712318769 64.6183931852 272
16.0681860857 66.6806823294 269
16.8964431005 70.1178309031 266
17.3933973093 72.1801200473 263
18.221654324 75.617268621 260
18.8842599358 78.3669874799 257
19.5468655476 81.1167063389 254
20.7064253682 85.928714342 251
21.534682383 89.3658629157 248
22.3629393977 92.8030114894 245
23.5224992183 97.6150194925 242
24.6820590389 102.427027496 239
25.8416188595 107.239035499 236
26.8355272772 111.363613787 233
28.1607385008 116.863051505 230
28.8233441126 119.612770364 227
29.8172525302 123.737348652 224
30.3142067391 125.799637797 221
29.4859497244 122.362489223 218
29.8172525302 123.737348652 215
30.479858142 126.487067511 212
30.479858142 126.487067511 209
30.645509545 127.174497226 206
30.8111609479 127.861926941 203
30.8111609479 127.861926941 200
31.1424637538 129.23678637 197
31.4737665597 130.6116458 194
32.1363721715 133.361364659 191
32.3020235744 134.048794374 188
32.1363721715 133.361364659 185
32.1363721715 133.361364659 182
32.1363721715 133.361364659 179
31.9707207685 132.673934944 176
31.9707207685 132.673934944 173
31.8050693656 131.986505229 170
31.6394179626 131.299075515 167
31.6394179626 131.299075515 164
31.6394179626 131.299075515 161
31.6394179626 131.299075515 158
31.4737665597 130.6116458 155
27.8294356949 115.488192076 149
27.8294356949 115.488192076 146
29.6516011273 123.049918938 143
9.7734327738 40.5583531694 137
-24.0267213304 -107.660190703 311
-23.872703886 -106.970061275 308
-23.7186864416 -106.279931847 305
8.16292455456 36.5768596618 302
8.93301177669 40.0275067997 299
9.70309899882 43.4781539376 296
10.6272036654 47.6189305031 293
10.9352385542 48.9991893582 290
11.8593432208 53.1399659237 287
12.1673781096 54.5202247789 284
12.9374653318 57.9708719168 281
13.399517665 60.0412601995 278
14.0155874427 62.8017779098 275
14.477639776 64.8721661926 272
15.0937095537 67.6326839029 269
15.7097793314 70.3932016132 266
16.1718316647 72.463589896 263
16.9419188868 75.9142370339 260
17.5579886645 78.6747547442 257
18.1740584422 81.4352724545 254
19.0981631088 85.57604902 251
19.8682503309 89.0266961579 248
20.7923549975 93.1674727234 245
21.8704771084 97.9983787164 242
22.794581775 102.139155282 239
23.872703886 106.970061275 236
24.7968085525 111.11083784 233
26.1829655524 117.322002689 230
26.9530527745 120.772649827 227
27.7231399966 124.223296964 224
28.1851923299 126.293685247 221
28.6472446632 128.36407353 218
27.877157441 124.913426392 215
28.0311748855 125.60355582 212
28.1851923299 126.293685247 209
28.4932272188 127.673944102 206
28.6472446632 128.36407353 203
28.6472446632 128.36407353 200
28.955279552 129.744332385 197
28.955279552 129.744332385 194
29.8793842186 133.885108951 191
30.033401663 134.575238378 188
30.033401663 134.575238378 185
30.033401663 134.575238378 182
29.8793842186 133.885108951 179
29.7253667742 133.194979523 176
29.7253667742 133.194979523 173
29.7253667742 133.194979523 170
29.5713493297 132.504850095 167
29.5713493297 132.504850095 164
29.4173318853 131.814720668 161
29.4173318853 131.814720668 158
29.2633144409 131.12459124 155
26.0289481079 116.631873261 149
26.0289481079 116.631873261 146
25.5668957747 114.561484978 143
8.62497688784 38.6472479445 137
-22.2049695812 -108.050633158 311
-21.920290484 -106.665368631 308
-21.920290484 -106.665368631 305
7.54399607567 36.7095099832 302
8.25569381866 40.1726713024 299
9.10973111024 44.3284648854 296
9.96376840183 48.4842584684 293
10.3907870476 50.5621552599 290
10.960145242 53.3326843153 287
11.3871638878 55.4105811068 284
11.9565220822 58.1811101621 281
12.383540728 60.2590069536 278
12.9528989224 63.029536009 275
13.5222571168 65.8000650643 272
13.9492757626 67.8779618558 269
14.5186339569 70.6484909112 266
15.0879921513 73.4190199665 263
15.7996898943 76.8821812857 260
16.2267085401 78.9600780772 257
12.383540728 60.2590069536 254
13.095238471 63.7221682728 251
18.2194622205 88.6569297709 248
19.0734995121 92.8127233539 245
19.7851972551 96.2758846731 242
20.7815740952 101.12431052 239
21.7779509354 105.972736367 236
22.7743277756 110.821162214 233
23.9130441644 116.362220324 230
24.6247419074 119.825381643 227
25.478779199 123.981175226 224
26.1904769419 127.444336546 221
26.6174955877 129.522233337 218
27.0445142335 131.600130129 215
26.1904769419 127.444336546 212
26.3328164905 128.136968809 209
26.4751560391 128.829601073 206
26.3328164905 128.136968809 203
26.1904769419 127.444336546 200
26.3328164905 128.136968809 197
26.3328164905 128.136968809 194
27.8985515251 135.755923712 191
27.8985515251 135.755923712 188
27.7562119765 135.063291448 185
27.7562119765 135.063291448 182
27.7562119765 135.063291448 179
27.6138724279 134.370659184 176
27.6138724279 134.370659184 173
27.4715328793 133.67802692 170
27.3291933307 132.985394656 167
27.3291933307 132.985394656 164
27.3291933307 132.985394656 161
27.1868537821 132.292762392 158
27.1868537821 132.292762392 155
23.7707046158 115.66958806 146
8.25569381866 40.1726713024 137
-20.376883312 -108.410251482 311
-20.1156412182 -107.020376463 308
-19.9850201714 -106.325438954 305
6.92291548419 36.8316880037 302
7.70664176542 41.0013130607 299
8.35974699978 44.4760006082 296
9.14347328101 48.6456256652 293
9.53533642163 50.7304381937 290
10.188441656 54.2051257412 287
10.5803047966 56.2899382697 284
11.233410031 59.7646258173 281
11.4946521247 61.1545008363 278
12.1477573591 64.6291883838 275
12.4089994528 66.0190634028 272
12.9314836403 68.7988134408 269
13.3233467809 70.8836259693 266
13.9764520153 74.3583135168 263
14.3683151559 76.4431260453 260
14.8907993434 79.2228760833 257
11.1027889841 59.0696883078 254
11.6252731716 61.8494383458 251
12.8008625934 68.1038759313 248
17.5032202808 93.1216262734 245
18.1563255152 96.5963138209 242
19.0706728433 101.460876387 239
19.8543991245 105.630501444 236
20.8993674995 111.19000152 233
21.6830937807 115.359626577 230
22.5974411088 120.224189144 227
23.38116739 124.393814201 224
24.0342726244 127.868501749 221
24.5567568119 130.648251787 218
24.9486199525 132.733064315 215
25.0792409993 133.428001825 212
25.2098620462 134.122939334 209
24.2955147181 129.258376768 206
24.2955147181 129.258376768 203
23.7730305306 126.47862673 200
23.6424094838 125.78368922 197
24.0342726244 127.868501749 194
25.6017251868 136.207751863 191
25.6017251868 136.207751863 188
25.47110414 135.512814353 185
25.47110414 135.512814353 182
25.3404830931 134.817876844 179
25.3404830931 134.817876844 176
25.3404830931 134.817876844 173
25.2098620462 134.122939334 170
25.0792409993 133.428001825 167
25.0792409993 133.428001825 164
25.0792409993 133.428001825 161
25.0792409993 133.428001825 158
24.9486199525 132.733064315 155
7.57602071855 40.3063755512 137
-18.5429840298 -108.738943085 311
-18.3052534653 -107.344854071 308
-18.186388183 -106.647809564 305
-17.8297923363 -104.556676043 302
7.01305165229 41.1256259104 299
7.72624334574 45.3078929521 296
8.32056975695 48.7931154869 293
8.67716560368 50.8842490078 290
9.39035729713 55.0665160495 287
9.62808786161 56.4606050634 284
10.2224142728 59.9458275982 281
10.4601448373 61.3399166121 278
11.0544712485 64.8251391469 275
11.4110670952 66.9162726678 272
11.767662942 69.0074061886 269
12.1242587887 71.0985397095 266
12.7185851999 74.5837622443 263
13.0751810466 76.6748957652 260
13.6695074578 80.1601182999 257
9.98468370834 58.5517385843 254
10.5790101196 62.0369611191 251
11.5299323775 67.6133171747 248
15.9279478204 93.4039639321 245
16.5222742317 96.8891864669 242
17.2354659251 101.071453509 239
17.9486576186 105.25372055 236
18.8995798765 110.830076606 233
19.7316368522 115.709388155 230
20.4448285456 119.891655196 227
21.2768855213 124.770966745 224
21.8712119326 128.25618928 221
22.3466730615 131.044367308 218
22.7032689082 133.135500829 215
22.8221341905 133.832545336 212
22.9409994727 134.529589843 209
20.8014243924 121.982788717 206
21.9900772148 128.953233787 203
21.6334813681 126.862100266 200
21.3957508036 125.468011252 197
20.2070979812 118.497566183 194
23.2975953195 136.620723363 191
23.2975953195 136.620723363 188
23.2975953195 136.620723363 185
23.1787300372 135.923678856 182
22.9409994727 134.529589843 179
23.059864755 135.226634349 176
22.9409994727 134.529589843 173
22.9409994727 134.529589843 170
22.8221341905 133.832545336 167
22.8221341905 133.832545336 164
22.8221341905 133.832545336 161
22.8221341905 133.832545336 158
22.7032689082 133.135500829 155
19.61277157 115.012343648 146
7.01305165229 41.1256259104 137
-16.7037949 -109.036614199 311
-16.4896436834 -107.638708889 308
-16.382568075 -106.939756233 305
-15.9542656417 -104.143945613 302
6.42453650001 41.9371593072 299
6.95991454168 45.4319225828 296
7.49529258334 48.9266858584 293
8.03067062501 52.421449134 290
8.45897305835 55.2172597545 287
8.78019988335 57.3141177199 284
9.20850231668 60.1099283404 281
9.52972914168 62.2067863057 278
9.95803157501 65.0025969262 275
10.2792584 67.0994548916 272
10.600485225 69.1963128569 269
11.1358632667 72.6910761325 266
11.4570900917 74.7879340979 263
11.885392525 77.5837447184 260
12.4207705667 81.078507994 257
12.7419973917 83.1753659593 254
13.2773754334 86.6701292349 251
9.63680475001 62.9057389608 248
10.4934096167 68.4973602018 245
14.77643395 96.4554664066 242
15.4188876 100.649182337 239
16.1684168584 105.541850923 236
17.025021725 111.133472164 233
17.667475375 115.327188095 230
18.4170046334 120.219856681 227
19.1665338917 125.112525267 224
19.594836325 127.908335887 221
20.1302143667 131.403099163 218
20.4514411917 133.499957128 215
20.5585168 134.198909783 212
20.6655924084 134.897862438 209
20.6655924084 134.897862438 206
19.8089875417 129.306241197 203
19.4877607167 127.209383232 200
19.1665338917 125.112525267 197
19.2736095 125.811477922 194
20.9868192334 136.994720404 191
20.879743625 136.295767748 188
20.7726680167 135.596815093 185
20.7726680167 135.596815093 182
20.7726680167 135.596815093 179
20.7726680167 135.596815093 176
20.7726680167 135.596815093 173
20.5585168 134.198909783 170
20.5585168 134.198909783 167
20.5585168 134.198909783 164
20.5585168 134.198909783 161
20.4514411917 133.499957128 158
20.3443655834 132.801004473 155
17.7745509834 116.02614075 146
6.10330967501 39.8403013419 137
-14.8598405972 -109.303179905 311
-14.6693298203 -107.901857086 308
-14.5740744318 -107.201195676 305
-14.1930528781 -104.398550038 302
5.81057869505 42.7403459886 299
6.19160024882 45.5429916272 296
6.76313257949 49.7469600851 293
7.33466491015 53.950928543 290
7.52517568703 55.3522513623 287
7.90619724081 58.1548970009 284
8.28721879458 60.9575426395 281
8.57298495991 63.0595268685 278
8.85875112524 65.1615110974 275
9.23977267902 67.964156736 272
9.62079423279 70.7668023746 269
9.90656039812 72.8687866036 266
10.1923265635 74.9707708325 263
10.6686035057 78.4740778808 260
11.1448804479 81.977384929 257
11.4306466132 84.079369158 254
11.9069235554 87.5826762062 251
12.2879451092 90.3853218448 248
12.668966663 93.1879674834 245
13.1452436052 96.6912745317 242
13.7167759359 100.89524299 239
14.383563655 105.799872857 236
15.0503513741 110.704502725 233
15.8123944816 116.309794002 230
16.3839268123 120.51376246 227
16.9554591429 124.717730918 224
17.5269914736 128.921699376 221
18.0032684158 132.425006424 218
18.1937791927 133.826329243 215
18.2890345811 134.526990653 212
18.3842899696 135.227652062 209
18.3842899696 135.227652062 206
17.2412253083 126.819715147 203
17.0507145314 125.418392327 200
16.764948366 123.316408098 197
16.8602037545 124.017069508 194
18.5748007465 136.628974882 191
18.479545358 135.928313472 188
18.479545358 135.928313472 185
18.479545358 135.928313472 182
18.3842899696 135.227652062 179
18.3842899696 135.227652062 176
18.0985238043 133.125667833 173
18.2890345811 134.526990653 170
18.2890345811 134.526990653 167
18.1937791927 133.826329243 164
18.0985238043 133.125667833 161
18.0985238043 133.125667833 158
18.1937791927 133.826329243 155
5.62006791816 41.3390231693 137
-13.0116471551 -109.53856416 311
-12.8448311659 -108.134223594 308
-12.8448311659 -108.134223594 305
-12.427791193 -104.623372179 302
5.08788766962 42.8323872678 299
5.33811165337 44.9388981171 296
5.92196761545 49.8540900986 293
6.42241558296 54.0671117971 290
6.67263956671 56.1736226463 287
6.83945555588 57.5779632125 284
7.2564955288 61.0888146279 281
7.50671951255 63.1953254771 278
7.84035149088 66.0040066094 275
8.09057547464 68.1105174587 272
8.42420745297 70.919198591 269
8.67443143672 73.0257094402 266
9.09147140964 76.5365608556 263
9.34169539339 78.6430717049 260
9.75873536631 82.1539231203 257
10.0089593501 84.2604339695 254
10.425999323 87.7712853849 251
10.7596313013 90.5799665172 248
11.0932632797 93.3886476495 245
11.5103032526 96.8994990649 242
12.0107512201 101.112520763 239
12.5946071822 106.027712745 236
13.1784631443 110.942904727 233
13.6789111118 115.155926425 230
14.3461750684 120.77328869 227
14.7632150413 124.284140105 224
15.3470710034 129.199332087 221
15.6807029818 132.008013219 218
15.9309269655 134.114524068 215
16.0143349601 134.816694351 212
16.0143349601 134.816694351 209
16.0977429547 135.518864634 206
15.1802550143 127.79499152 203
15.0134390251 126.390650954 200
14.7632150413 124.284140105 197
14.7632150413 124.284140105 194
16.2645589439 136.9232052 191
16.2645589439 136.9232052 188
16.1811509493 136.221034917 185
16.1811509493 136.221034917 182
16.1811509493 136.221034917 179
16.0977429547 135.518864634 176
16.0143349601 134.816694351 173
16.0143349601 134.816694351 170
16.0143349601 134.816694351 167
16.0143349601 134.816694351 164
15.9309269655 134.114524068 161
15.8475189709 133.412353785 158
15.9309269655 134.114524068 155
4.75425569128 40.0237061355 137
-11.1597418169 -109.742699815 311
-11.0166682039 -108.335742125 308
-11.0166682039 -108.335742125 305
-10.6589841713 -104.8183479 302
4.29220839111 42.2087306979 299
4.64989242371 45.7261249227 296
5.50833410193 54.1678710623 290
5.72294452149 56.2783075972 287
6.08062855408 59.795701822 284
6.29523897363 61.9061383569 281
6.50984939319 64.0165748918 278
6.79599661926 66.8304902717 275
7.01060703882 68.9409268066 272
7.22521745838 71.0513633415 269
7.51136468445 73.8652787213 266
7.79751191052 76.6791941012 263
8.0836591366 79.493109481 260
8.36980636267 82.3070248609 257
8.65595358875 85.1209402408 254
8.94210081482 87.9348556206 251
6.08062855408 59.795701822 248
9.65746888001 94.9696440703 245
9.87207929956 97.0800806052 242
10.3013001387 101.300953675 239
10.8020577843 106.22530559 236
11.3028154299 111.149657504 233
11.8751098821 116.777488264 230
12.2327939147 120.294882489 227
12.6620147538 124.515755559 224
13.1627723994 129.440107474 221
13.520456432 132.957501698 218
13.663530045 134.364459388 215
13.7350668516 135.067938233 212
13.8066036581 135.771417078 209
13.8066036581 135.771417078 206
12.8766251733 126.626192094 203
12.8050883668 125.922713249 200
12.4474043342 122.405319024 197
11.2312786234 110.446178659 194
11.1597418169 109.742699815 191
13.8066036581 135.771417078 188
13.8781404646 136.474895923 185
13.8066036581 135.771417078 182
13.8066036581 135.771417078 179
13.7350668516 135.067938233 176
13.7350668516 135.067938233 173
13.7350668516 135.067938233 170
13.7350668516 135.067938233 167
13.7350668516 135.067938233 164
13.5919932385 133.660980543 161
13.5919932385 133.660980543 158
4.2206715846 41.5052518529 137
-9.3046528847 -109.915528633 311
-9.1853624631 -108.506355189 308
-9.1853624631 -108.506355189 305
-8.8274911983 -104.278834857 302
3.63835785876 42.9797900424 299
3.81729349116 45.0935502085 296
4.65232644235 54.9577643166 290
4.83126207475 57.0715244826 287
5.06984291794 59.8898713706 284
5.24877855034 62.0036315366 281
5.54700460434 65.5265651467 278
5.72594023674 67.6403253127 275
5.90487586914 69.7540854787 272
6.20310192313 73.2770190887 269
6.38203755553 75.3907792548 266
6.56097318793 77.5045394208 263
6.73990882033 79.6182995868 260
7.03813487432 83.1412331968 257
7.21707050672 85.2549933629 254
7.45565134992 88.0733402509 251
7.75387740392 91.5962738609 248
8.05210345791 95.119207471 245
8.29068430111 97.937554359 242
8.64855556591 102.165074691 239
9.0064268307 106.392595023 236
9.3642980955 110.620115355 233
9.72216936029 114.847635687 230
10.1993310467 120.484329463 227
10.6764927331 126.121023239 224
10.9747187871 129.643956849 221
11.2132996303 132.462303737 218
11.3922352627 134.576063903 215
11.4518804735 135.280650625 212
11.4518804735 135.280650625 209
11.4518804735 135.280650625 206
10.7361379439 126.825609961 203
10.6168475223 125.416436517 200
9.1257172523 107.801768467 197
9.0660720415 107.097181745 194
9.0660720415 107.097181745 191
11.5711708951 136.689824069 188
11.5711708951 136.689824069 185
11.5115256843 135.985237347 182
11.4518804735 135.280650625 179
11.4518804735 135.280650625 176
11.4518804735 135.280650625 173
11.4518804735 135.280650625 170
11.4518804735 135.280650625 167
11.3325900519 133.871477181 164
11.3325900519 133.871477181 161
11.3325900519 133.871477181 158
3.34013180476 39.4568564324 137
-7.44690956876 -110.057001312 311
-7.35143636916 -108.646014116 308
-7.35143636916 -108.646014116 305
-7.06501677036 -104.413052527 302
2.91193258778 43.0351094875 299
3.10287898698 45.8570838802 296
3.72345478438 55.0285006562 290
3.86666458378 57.1449814507 287
4.05761098298 59.9669558433 284
4.20082078238 62.0834366378 281
4.43950378138 65.6109046285 278
4.58271358077 67.727385423 275
4.72592338017 69.8438662175 272
5.01234297897 74.0768278064 269
5.10781617857 75.4878150027 266
5.25102597797 77.6042957972 263
5.44197237717 80.4262701898 260
5.63291877637 83.2482445824 257
5.82386517557 86.0702189751 254
5.96707497497 88.1866997695 251
6.20575797397 91.7141677603 248
6.44444097296 95.2416357511 245
6.63538737216 98.0636101437 242
6.92180697096 102.296571733 239
7.20822656976 106.529533322 236
7.49464616856 110.762494911 233
7.82880236716 115.700950098 230
8.16295856576 120.639405285 227
8.49711476435 125.577860472 224
8.78353436315 129.810822061 221
9.02221736215 133.338290052 218
9.11769056175 134.749277248 215
9.16542716155 135.454770846 212
9.16542716155 135.454770846 209
9.16542716155 135.454770846 206
8.59258796395 126.988847668 203
8.49711476435 125.577860472 200
7.25596316956 107.23502692 197
7.16048996996 105.824039723 194
7.20822656976 106.529533322 191
9.21316376135 136.160264444 188
9.26090036115 136.865758042 185
