57.5517943752 107.94577789 295
2.32868532154 4.36774823831 292
3.32669331648 6.23964034044 289
-31.9362558382 -59.9005472682 286
1.99601598989 3.74378420426 283
1.33067732659 2.49585613618 280
0.665338663297 1.24792806809 277
-0.0 -0.0 274
63.5398423448 119.177130502 271
64.2051810081 120.425058571 268
64.5378503398 121.049022605 265
65.2031890031 122.296950673 262
65.5358583347 122.920914707 259
65.8685276664 123.544878741 256
66.201196998 124.168842775 253
66.8665356613 125.416770843 250
67.199204993 126.040734877 247
67.5318743246 126.664698911 244
67.5318743246 126.664698911 241
67.5318743246 126.664698911 238
68.1972129879 127.912626979 235
67.8645436563 127.288662945 232
68.5298823196 128.536591013 229
68.5298823196 128.536591013 226
45.5756984358 85.483072664 223
43.5796824459 81.7392884598 220
42.9143437826 80.4913603917 217
69.1952209829 129.784519081 214
69.1952209829 129.784519081 211
69.1952209829 129.784519081 208
69.1952209829 129.784519081 205
69.5278903145 130.408483115 202
69.1952209829 129.784519081 199
69.1952209829 129.784519081 196
68.8625516512 129.160555047 193
69.1952209829 129.784519081 190
68.8625516512 129.160555047 187
68.8625516512 129.160555047 184
68.8625516512 129.160555047 181
68.8625516512 129.160555047 178
68.8625516512 129.160555047 175
69.1952209829 129.784519081 172
68.1972129879 127.912626979 163
-47.9043837574 -89.8508209024 148
-49.235061084 -92.3466770385 145
-50.5657384106 -94.8425331747 142
-50.5657384106 -94.8425331747 139
-49.235061084 -92.3466770385 136
-44.2450211092 -82.9872165279 133
-39.9203197978 -74.8756840853 130
-34.9302798231 -65.5162235746 127
-25.6155385369 -48.0452306214 124
60.54581836 113.561454196 121
61.543826355 115.433346298 118
61.8764956866 116.057310332 115
61.8764956866 116.057310332 112
61.8764956866 116.057310332 109
62.8745036815 117.929202434 106
64.5378503398 121.049022605 103
65.5358583347 122.920914707 100
66.201196998 124.168842775 97
66.201196998 124.168842775 94
66.201196998 124.168842775 91
66.5338663297 124.792806809 88
66.8665356613 125.416770843 85
66.5338663297 124.792806809 82
65.2031890031 122.296950673 79
-50.5671020369 -98.830502334 370
-50.2450185844 -98.2010086886 367
-49.9229351319 -97.5715150431 364
-49.9229351319 -97.5715150431 361
-49.6008516795 -96.9420213977 358
-49.278768227 -96.3125277523 355
-49.278768227 -96.3125277523 352
-49.278768227 -96.3125277523 349
-49.278768227 -96.3125277523 346
-49.278768227 -96.3125277523 343
-48.9566847745 -95.6830341068 340
-48.6346013221 -95.0535404614 337
-48.3125178696 -94.4240468159 334
-47.9904344171 -93.7945531705 331
-47.9904344171 -93.7945531705 328
-47.6683509647 -93.1650595251 325
-46.7021006073 -91.2765785887 322
-47.0241840598 -91.9060722342 319
44.44751644 86.8701230707 316
46.7021006073 91.2765785887 313
48.6346013221 95.0535404614 310
50.2450185844 98.2010086886 307
51.8554358467 101.348476916 304
53.1437696566 103.866451498 301
54.4321034664 106.384426079 298
55.3983538238 108.272907016 295
1.28833380986 2.51797458176 292
1.93250071478 3.77696187264 289
2.25458416725 4.40645551808 286
-5.79750214435 -11.3308856179 283
0.322083452464 0.62949364544 280
-0.322083452464 -0.62949364544 277
-1.28833380986 -2.51797458176 274
-3.5429179771 -6.92443009984 271
62.1621063256 121.49227357 268
62.484189778 122.121767215 265
63.128356683 123.380754506 262
63.4504401354 124.010248152 259
63.7725235879 124.639741797 256
64.0946070403 125.269235442 253
64.7387739453 126.528222733 250
65.0608573977 127.157716379 247
65.3829408502 127.787210024 244
65.3829408502 127.787210024 241
65.3829408502 127.787210024 238
66.0271077551 129.046197315 235
65.7050243027 128.41670367 232
66.3491912076 129.675690961 229
66.6712746601 130.305184606 226
42.8370991777 83.7226548435 223
38.6500142957 75.5392374528 220
45.7358502499 89.3880976524 217
66.9933581125 130.934678251 214
66.9933581125 130.934678251 211
66.9933581125 130.934678251 208
66.9933581125 130.934678251 205
66.9933581125 130.934678251 202
66.9933581125 130.934678251 199
66.9933581125 130.934678251 196
66.6712746601 130.305184606 193
66.6712746601 130.305184606 190
66.6712746601 130.305184606 187
66.6712746601 130.305184606 184
66.6712746601 130.305184606 181
66.6712746601 130.305184606 178
66.6712746601 130.305184606 175
66.9933581125 130.934678251 172
41.8708488203 81.8341739071 151
-46.0579337024 -90.0175912979 148
41.2266819154 80.5751866163 145
-48.9566847745 -95.6830341068 142
-48.9566847745 -95.6830341068 139
-47.3462675122 -92.5355658796 136
-43.8033495351 -85.6111357798 133
-38.6500142957 -75.5392374528 130
-33.8187625087 -66.0968327712 127
-22.5458416725 -44.0645551808 124
58.9412718009 115.197337115 121
59.5854387059 116.456324406 118
60.2296056108 117.715311697 115
60.2296056108 117.715311697 112
59.9075221583 117.085818052 109
61.1958559682 119.603792634 106
62.8062732305 122.751260861 103
63.7725235879 124.639741797 100
63.7725235879 124.639741797 97
64.0946070403 125.269235442 94
64.0946070403 125.269235442 91
64.4166904928 125.898729088 88
64.4166904928 125.898729088 85
64.7387739453 126.528222733 82
64.7387739453 126.528222733 79
-48.8906934809 -99.6704574634 370
-48.57928779 -99.0356137852 367
-48.267882099 -98.4007701071 364
-48.267882099 -98.4007701071 361
-47.956476408 -97.765926429 358
-47.6450707171 -97.1310827509 355
-47.6450707171 -97.1310827509 352
-47.6450707171 -97.1310827509 349
-47.6450707171 -97.1310827509 346
-47.6450707171 -97.1310827509 343
-47.0222593352 -95.8613953947 340
-47.0222593352 -95.8613953947 337
-46.7108536442 -95.2265517166 334
-46.3994479532 -94.5917080385 331
-46.3994479532 -94.5917080385 328
-45.7766365713 -93.3220206822 325
-45.1538251894 -92.052333326 322
-45.4652308803 -92.6871770041 319
42.6625796617 86.9735839011 316
45.1538251894 92.052333326 313
47.3336650261 96.4962390728 310
48.57928779 99.0356137852 307
49.8249105538 101.574988498 304
51.0705333177 104.11436321 301
52.3161560815 106.653737923 298
53.5617788453 109.193112635 295
0.934217072884 1.90453103433 292
0.622811381923 1.26968735622 289
0.934217072884 1.90453103433 286
0.622811381923 1.26968735622 283
-0.622811381923 -1.26968735622 280
-1.55702845481 -3.17421839055 277
-2.49124552769 -5.07874942488 274
-5.6053024373 -11.427186206 271
59.7898926646 121.889986197 268
60.4127040465 123.159673553 265
61.0355154284 124.42936091 262
61.3469211194 125.064204588 259
61.6583268103 125.699048266 256
61.9697325013 126.333891944 253
62.5925438832 127.6035793 250
62.9039495742 128.238422978 247
63.2153552651 128.873266656 244
63.2153552651 128.873266656 241
63.5267609561 129.508110335 238
63.8381666471 130.142954013 235
63.8381666471 130.142954013 232
64.460978029 131.412641369 229
64.460978029 131.412641369 226
42.6625796617 86.9735839011 223
41.1055512069 83.7993655106 220
41.1055512069 83.7993655106 217
41.1055512069 83.7993655106 214
64.7723837199 132.047485047 211
64.7723837199 132.047485047 208
64.7723837199 132.047485047 205
64.7723837199 132.047485047 202
64.7723837199 132.047485047 199
64.7723837199 132.047485047 196
64.7723837199 132.047485047 193
64.460978029 131.412641369 190
64.460978029 131.412641369 187
64.460978029 131.412641369 184
64.460978029 131.412641369 181
64.460978029 131.412641369 178
64.460978029 131.412641369 175
64.460978029 131.412641369 172
-44.5310138075 -90.7826459698 148
-43.5967967346 -88.8781149355 145
-47.6450707171 -97.1310827509 142
-47.3336650261 -96.4962390728 139
-45.7766365713 -93.3220206822 136
-41.7283625888 -85.0690528668 133
-37.6800886063 -76.8160850514 130
-33.0090032419 -67.2934298797 127
-23.978238204 -48.8829632145 124
55.1188073001 112.367331026 121
56.9872414459 116.176393094 112
57.6100528278 117.44608045 109
58.2328642098 118.715767807 106
58.8556755917 119.985455163 103
61.6583268103 125.699048266 85
62.5925438832 127.6035793 82
62.5925438832 127.6035793 79
-47.2003376382 -100.481979115 370
-46.899698545 -99.841966509 367
-46.5990594518 -99.2019539032 364
-46.5990594518 -99.2019539032 361
-46.2984203585 -98.5619412974 358
-45.9977812653 -97.9219286915 355
-45.9977812653 -97.9219286915 352
-45.9977812653 -97.9219286915 349
-45.9977812653 -97.9219286915 346
-45.9977812653 -97.9219286915 343
-45.3965030788 -96.6419034799 340
-45.3965030788 -96.6419034799 337
-45.0958639856 -96.0018908741 334
-44.7952248923 -95.3618782682 331
-44.7952248923 -95.3618782682 328
-44.1939467059 -94.0818530566 325
-43.5926685194 -92.8018278449 322
-43.8933076126 -93.4418404507 319
41.1875557735 87.6817269983 316
43.2920294262 92.1618152391 313
46.899698545 99.841966509 307
48.4028940112 103.042029538 304
49.6054503841 105.602079961 301
50.5073676639 107.522117779 298
51.7099240368 110.082168202 295
-6.01278186474 -12.8002521165 292
-0.0 -0.0 289
0.300639093237 0.640012605827 286
0.300639093237 0.640012605827 283
-1.50319546619 -3.20006302914 280
-2.10447365266 -4.48008824079 277
-6.61406005122 -14.0802773282 274
-6.31342095798 -13.4402647224 271
57.7227059015 122.882420319 268
58.0233449948 123.522432925 265
58.9252622745 125.442470742 262
59.2259013677 126.082483348 259
59.526540461 126.722495954 256
59.8271795542 127.36250856 253
60.4284577407 128.642533771 250
60.7290968339 129.282546377 247
61.0297359272 129.922558983 244
61.0297359272 129.922558983 241
61.3303750204 130.562571589 238
61.3303750204 130.562571589 235
61.3303750204 130.562571589 232
62.2322923001 132.482609406 229
62.2322923001 132.482609406 226
37.5798866547 80.0015757284 223
39.3837212141 83.8416513633 220
39.3837212141 83.8416513633 217
39.3837212141 83.8416513633 214
62.5329313933 133.122622012 211
62.5329313933 133.122622012 208
62.5329313933 133.122622012 205
62.5329313933 133.122622012 202
62.5329313933 133.122622012 199
62.5329313933 133.122622012 196
62.2322923001 132.482609406 193
62.2322923001 132.482609406 190
62.2322923001 132.482609406 187
62.2322923001 132.482609406 184
62.2322923001 132.482609406 181
62.2322923001 132.482609406 178
62.2322923001 132.482609406 175
61.9316532069 131.8425968 172
61.9316532069 131.8425968 169
38.1811648411 81.28160094 151
37.8805257479 80.6415883342 148
37.5798866547 80.0015757284 145
-45.9977812653 -97.9219286915 142
-45.6971421721 -97.2819160857 139
-44.4945857991 -94.7218656624 136
-41.1875557735 -87.6817269983 133
-36.3773302817 -77.4415253051 130
-32.1683829764 -68.4813488235 127
-21.9466538063 -46.7209202254 124
52.9124804098 112.642218626 121
53.5137585962 113.922243837 118
54.7163149692 116.482294261 115
55.0169540624 117.122306866 112
55.6182322489 118.402332078 109
56.2195104354 119.68235729 106
56.8207886218 120.962382501 103
56.8207886218 120.962382501 100
57.1214277151 121.602395107 97
57.4220668083 122.242407713 94
58.0233449948 123.522432925 88
58.6246231813 124.802458136 85
59.8271795542 127.36250856 82
60.4284577407 128.642533771 79
-45.4965167249 -101.264835782 370
-44.9169432634 -99.9748378737 367
-44.9169432634 -99.9748378737 364
-44.9169432634 -99.9748378737 361
-44.6271565327 -99.3298389197 358
-44.337369802 -98.6848399656 355
-44.337369802 -98.6848399656 352
-44.337369802 -98.6848399656 349
-44.337369802 -98.6848399656 346
-44.0475830712 -98.0398410116 343
-44.0475830712 -98.0398410116 340
-43.7577963405 -97.3948420576 337
-43.4680096098 -96.7498431036 334
-43.178222879 -96.1048441495 331
-43.178222879 -96.1048441495 328
-42.8884361483 -95.4598451955 325
-42.0190759561 -93.5248483335 322
-42.3088626868 -94.1698472875 319
39.7007821102 88.3648567013 316
41.4395024946 92.2348504254 313
43.4680096098 96.7498431036 310
44.9169432634 99.9748378737 307
46.6556636478 103.844831598 304
47.52502384 105.77982846 301
48.6841707629 108.359824276 298
49.2637442244 109.649822184 295
-0.579573461463 -1.28999790805 292
-6.95488153756 -15.4799748966 289
-1.15914692293 -2.5799958161 286
-1.15914692293 -2.5799958161 283
-2.60808057659 -5.80499058621 280
-3.18765403805 -7.09498849426 277
-4.34680096098 -9.67498431036 274
-8.11402846049 -18.0599707127 271
55.6390523005 123.839799173 268
55.9288390312 124.484798127 265
56.5084124927 125.774796035 262
57.0879859542 127.064793943 259
57.3777726849 127.709792897 256
57.6675594156 128.354791851 253
58.2471328771 129.644789759 250
58.5369196078 130.289788713 247
58.5369196078 130.289788713 244
58.8267063385 130.934787667 241
58.8267063385 130.934787667 238
59.4062798 132.224785575 235
59.4062798 132.224785575 232
59.9858532615 133.514783483 229
59.9858532615 133.514783483 226
37.3824882644 83.2048650691 223
37.0927015337 82.559866115 220
37.0927015337 82.559866115 217
37.0927015337 82.559866115 214
60.2756399922 134.159782437 211
60.5654267229 134.804781391 208
60.5654267229 134.804781391 205
60.2756399922 134.159782437 202
59.9858532615 133.514783483 199
60.2756399922 134.159782437 196
59.9858532615 133.514783483 193
59.9858532615 133.514783483 190
59.9858532615 133.514783483 187
59.9858532615 133.514783483 184
59.9858532615 133.514783483 181
59.9858532615 133.514783483 178
59.6960665307 132.869784529 175
59.6960665307 132.869784529 172
59.6960665307 132.869784529 169
-38.8314219181 -86.4298598392 151
-41.7292892254 -92.8798493794 148
-40.5701423024 -90.2998535633 145
-44.337369802 -98.6848399656 142
-44.0475830712 -98.0398410116 139
-42.8884361483 -95.4598451955 136
-39.7007821102 -88.3648567013 133
-35.3539811493 -78.6898723909 130
-31.5867536498 -70.3048859886 127
-21.7340048049 -48.3749215518 124
50.7126778781 112.874816954 121
51.5820380702 114.809813816 118
52.4513982624 116.744810678 115
53.0309717239 118.034808586 112
53.6105451854 119.324806494 109
54.1901186468 120.614804402 106
54.4799053776 121.259803356 103
55.059478839 122.549801265 100
55.059478839 122.549801265 97
55.059478839 122.549801265 94
55.3492655698 123.194800219 91
55.6390523005 123.839799173 88
56.5084124927 125.774796035 85
57.0879859542 127.064793943 82
58.2471328771 129.644789759 79
-43.7797167981 -102.018804135 370
-43.5008650988 -101.369002834 367
-43.2220133994 -100.719201534 364
-43.2220133994 -100.719201534 361
-42.9431617001 -100.069400234 358
-42.6643100007 -99.4195989338 355
-42.6643100007 -99.4195989338 352
-42.6643100007 -99.4195989338 349
-42.6643100007 -99.4195989338 346
-42.6643100007 -99.4195989338 343
-42.3854583014 -98.7697976336 340
-42.106606602 -98.1199963334 337
-41.8277549027 -97.4701950332 334
-41.5489032033 -96.8203937329 331
-41.5489032033 -96.8203937329 328
-41.270051504 -96.1705924327 325
-40.9911998046 -95.5207911325 322
-40.7123481053 -94.8709898323 319
37.9238311118 88.3729768301 316
40.1546447066 93.5713872318 313
41.8277549027 97.4701950332 310
43.5008650988 101.369002834 307
44.6162718962 103.968208035 304
45.7316786936 106.567413236 301
46.5682337917 108.516817137 298
47.6836405891 111.116022338 295
-0.836555098054 -1.94940390066 292
-1.1154067974 -2.59920520088 289
-1.39425849676 -3.24900650111 286
-1.39425849676 -3.24900650111 283
-3.06736869286 -7.14781430243 280
-3.62507209157 -8.44741690287 277
-4.46162718962 -10.3968208035 274
-8.36555098054 -19.4940390066 271
53.5395262754 124.761849642 268
54.0972296741 126.061452243 265
54.3760813735 126.711253543 262
54.9337847722 128.010856144 259
55.2126364715 128.660657444 256
55.4914881709 129.310458744 253
56.0491915696 130.610061344 250
56.328043269 131.259862645 247
56.6068949683 131.909663945 244
56.328043269 131.259862645 241
56.8857466677 132.559465245 238
57.164598367 133.209266545 235
57.4434500664 133.859067846 232
57.4434500664 133.859067846 229
57.7223017657 134.508869146 226
34.8564624189 81.2251625276 223
35.4141658176 82.5247651281 220
36.2507209157 84.4741690287 217
35.4141658176 82.5247651281 214
58.0011534651 135.158670446 211
58.2800051644 135.808471746 208
58.2800051644 135.808471746 205
58.0011534651 135.158670446 202
58.0011534651 135.158670446 199
57.7223017657 134.508869146 196
57.7223017657 134.508869146 193
57.7223017657 134.508869146 190
57.7223017657 134.508869146 187
57.7223017657 134.508869146 184
57.7223017657 134.508869146 181
57.7223017657 134.508869146 178
57.4434500664 133.859067846 175
57.4434500664 133.859067846 172
57.4434500664 133.859067846 169
-37.3661277131 -87.0733742296 151
-40.1546447066 -93.5713872318 148
-41.270051504 -96.1705924327 145
-42.6643100007 -99.4195989338 142
-42.6643100007 -99.4195989338 139
-39.8757930072 -92.9215859316 136
-39.3180896085 -91.6219833312 133
-34.0199073209 -79.275758627 130
-29.2794284319 -68.2291365232 127
-20.9138774513 -48.7350975166 124
48.7990473865 113.715227539 121
49.0778990858 114.365028839 118
50.1933058832 116.96423404 115
51.0298609813 118.91363794 112
51.58756438 120.213240541 109
52.424119478 122.162644442 106
52.424119478 122.162644442 103
52.7029711774 122.812445742 100
52.9818228767 123.462247042 97
52.9818228767 123.462247042 94
53.2606745761 124.112048342 91
53.5395262754 124.761849642 88
54.3760813735 126.711253543 85
54.6549330728 127.361054843 82
55.7703398702 129.960260044 79
-42.0504276179 -102.743669085 370
-41.7825904993 -102.089250811 367
-41.5147533808 -101.434832537 364
-41.5147533808 -101.434832537 361
-41.2469162622 -100.780414262 358
-40.9790791436 -100.125995988 355
-40.9790791436 -100.125995988 352
-40.9790791436 -100.125995988 349
-40.9790791436 -100.125995988 346
-40.9790791436 -100.125995988 343
-40.711242025 -99.4715777133 340
-40.4434049064 -98.8171594389 337
-40.1755677878 -98.1627411645 334
-39.9077306692 -97.5083228901 331
-39.6398935507 -96.8539046156 328
-39.6398935507 -96.8539046156 325
-38.8363821949 -94.8906497923 322
-39.1042193135 -95.5450680668 319
36.158011009 88.346467048 316
39.9077306692 97.5083228901 310
41.7825904993 102.089250811 307
42.5861018551 104.052505634 304
43.6574503294 106.670178732 301
44.9966359224 109.942270104 298
45.5323101595 111.251106653 295
-4.55323101595 -11.1251106653 292
-1.33918559293 -3.27209137215 289
-1.8748598301 -4.58092792101 286
-2.41053406727 -5.88976446987 283
-9.10646203191 -22.2502213306 280
-9.10646203191 -22.2502213306 277
-5.08890525312 -12.4339472142 274
-9.10646203191 -22.2502213306 271
51.4247267684 125.648308691 268
51.9604010056 126.957145239 265
52.2282381242 127.611563514 262
52.7639123613 128.920400063 259
53.0317494799 129.574818337 256
53.2995865985 130.229236612 253
53.8352608357 131.53807316 250
54.1030979543 132.192491435 247
54.3709350729 132.846909709 244
54.3709350729 132.846909709 241
54.3709350729 132.846909709 238
54.6387721914 133.501327984 235
54.6387721914 133.501327984 232
55.1744464286 134.810164533 229
55.4422835472 135.464582807 226
34.0153140604 83.1111208526 223
32.1404542303 78.5301929316 220
34.2831511789 83.765539127 217
34.8188254161 85.0743756759 214
55.7101206658 136.119001081 211
55.7101206658 136.119001081 208
55.7101206658 136.119001081 205
55.7101206658 136.119001081 202
55.4422835472 135.464582807 199
55.4422835472 135.464582807 196
55.4422835472 135.464582807 193
55.4422835472 135.464582807 190
55.4422835472 135.464582807 187
55.4422835472 135.464582807 184
55.4422835472 135.464582807 181
55.4422835472 135.464582807 178
55.4422835472 135.464582807 175
55.1744464286 134.810164533 172
55.1744464286 134.810164533 169
-38.5685450763 -94.2362315179 148
-39.6398935507 -96.8539046156 145
-40.9790791436 -100.125995988 142
-40.711242025 -99.4715777133 139
-39.3720564321 -96.1994863412 136
-37.7650337206 -92.2729766946 133
-32.6761284674 -79.8390294804 130
-29.4620830444 -71.9860101873 127
-20.0877838939 -49.0813705822 124
46.8714957525 114.523198025 121
47.4071699896 115.832034574 118
48.2106813454 117.795289397 115
49.0141927012 119.758544221 112
49.5498669383 121.06738077 109
50.3533782941 123.030635593 106
50.3533782941 123.030635593 103
50.6212154127 123.685053867 100
50.6212154127 123.685053867 97
51.9604010056 126.957145239 94
51.9604010056 126.957145239 91
51.692563887 126.302726965 88
52.4960752428 128.265981788 85
52.7639123613 128.920400063 82
53.5674237171 130.883654886 79
-40.309142507 -103.439223848 370
-39.7956502458 -102.121526729 367
-39.7956502458 -102.121526729 364
-39.7956502458 -102.121526729 361
-39.5389041151 -101.46267817 358
-39.2821579845 -100.80382961 355
-39.2821579845 -100.80382961 352
-39.2821579845 -100.80382961 349
-39.2821579845 -100.80382961 346
-39.0254118539 -100.144981051 343
-39.0254118539 -100.144981051 340
-38.7686657233 -99.4861324911 337
-38.5119195927 -98.8272839316 334
-38.255173462 -98.168435372 331
-38.255173462 -98.168435372 328
-37.9984273314 -97.5095868125 325
-37.4849350702 -96.1918896934 322
-37.4849350702 -96.1918896934 319
34.4039815028 88.2857069789 316
36.4579505477 93.5564954552 313
38.7686657233 99.4861324911 310
39.2821579845 100.80382961 307
41.0793808988 105.415769527 304
41.8496192907 107.392315206 301
42.8766038132 110.027709444 298
43.646842205 112.004255122 295
-5.13492261236 -13.1769711909 292
-2.05396904494 -5.27078847635 289
-2.8242074368 -7.24733415498 286
-3.08095356741 -7.90618271452 283
-3.59444582865 -9.22387983361 280
-4.87817648174 -12.5181226313 277
-5.90516100421 -15.1535168695 274
-10.0130990941 -25.6950938222 271
49.2952570786 126.498923432 268
49.5520032092 127.157771992 265
50.0654954705 128.475469111 262
50.5789877317 129.79316623 259
50.8357338623 130.45201479 256
51.3492261236 131.769711909 253
51.6059722542 132.428560468 250
51.6059722542 132.428560468 247
51.8627183848 133.087409028 244
52.1194645154 133.746257587 241
52.376210646 134.405106147 238
52.376210646 134.405106147 235
52.6329567766 135.063954706 232
53.1464490379 136.381651826 229
52.8897029073 135.722803266 226
53.1464490379 136.381651826 223
31.579774066 81.0383728239 220
32.8635047191 84.3326156216 217
31.3230279354 80.3795242643 214
53.4031951685 137.040500385 211
53.6599412991 137.699348945 208
53.1464490379 136.381651826 205
53.1464490379 136.381651826 202
53.1464490379 136.381651826 199
53.1464490379 136.381651826 196
53.1464490379 136.381651826 193
53.1464490379 136.381651826 190
53.1464490379 136.381651826 187
53.1464490379 136.381651826 184
53.1464490379 136.381651826 181
52.8897029073 135.722803266 178
53.1464490379 136.381651826 175
52.8897029073 135.722803266 172
52.8897029073 135.722803266 169
51.8627183848 133.087409028 160
-34.6607276334 -88.9445555384 151
-36.4579505477 -93.5564954552 148
31.0662818048 79.7206757048 145
-39.2821579845 -100.80382961 142
-39.2821579845 -100.80382961 139
-37.9984273314 -97.5095868125 136
-34.917473764 -89.6034040979 133
-31.579774066 -81.0383728239 130
-28.242074368 -72.4733415498 127
-19.7694520576 -50.7313390849 124
44.9305728581 115.29849792 121
45.9575573806 117.933892158 118
46.7277957724 119.910437837 115
47.2412880337 121.228134956 112
47.4980341643 121.886983516 109
48.7817648174 125.181226313 106
48.5250186868 124.522377754 103
48.7817648174 125.181226313 100
49.038510948 125.840074873 97
49.2952570786 126.498923432 94
49.5520032092 127.157771992 91
49.8087493398 127.816620551 88
50.0654954705 128.475469111 85
50.0654954705 128.475469111 82
51.3492261236 131.769711909 79
-38.5563582102 -104.105269999 370
-38.0651944114 -102.779088216 367
-38.0651944114 -102.779088216 364
-38.0651944114 -102.779088216 361
-37.819612512 -102.115997324 358
-37.5740306125 -101.452906432 355
-37.5740306125 -101.452906432 352
-37.5740306125 -101.452906432 349
-37.5740306125 -101.452906432 346
-37.3284487131 -100.78981554 343
-37.3284487131 -100.78981554 340
-37.0828668137 -100.126724649 337
-37.0828668137 -100.126724649 334
-36.5917030148 -98.8005428653 331
-36.3461211154 -98.1374519736 328
-36.3461211154 -98.1374519736 325
-35.6093754171 -96.1481792984 322
-35.8549573165 -96.8112701901 319
32.4168107245 87.5279977062 316
34.8726297188 94.1589066233 313
36.3461211154 98.1374519736 310
37.5740306125 101.452906432 307
38.5563582102 104.105269999 304
40.0298496068 108.083815349 301
41.0121772045 110.736178916 298
41.5033410034 112.0623607 295
-1.47349139657 -3.97854535028 292
-2.70140089371 -7.29399980885 289
-3.19256469257 -8.62018159227 286
-3.68372849142 -9.9463633757 283
-4.42047418971 -11.9356360508 280
-11.2967673737 -30.5021810188 277
-6.63071128456 -17.9034540763 274
-11.0511854743 -29.8390901271 271
46.9061427908 126.650360317 268
47.1517246902 127.313451209 265
47.6428884891 128.639632992 262
48.1340522879 129.965814776 259
48.6252160868 131.291996559 256
48.8707979862 131.955087451 253
49.1163798857 132.618178343 250
49.3619617851 133.281269234 247
49.6075436845 133.944360126 244
49.8531255839 134.607451018 241
49.8531255839 134.607451018 238
50.0987074834 135.27054191 235
50.0987074834 135.27054191 232
50.8354531817 137.259814585 229
50.5898712822 136.596723693 226
50.8354531817 137.259814585 223
30.6977374285 82.8863614642 220
29.224246032 78.9078161139 217
31.1889012274 84.2125432476 214
51.0810350811 137.922905476 211
50.8354531817 137.259814585 208
51.3266169805 138.585996368 205
50.8354531817 137.259814585 202
50.8354531817 137.259814585 199
50.8354531817 137.259814585 196
50.8354531817 137.259814585 193
50.8354531817 137.259814585 190
50.8354531817 137.259814585 187
50.8354531817 137.259814585 184
50.8354531817 137.259814585 181
50.8354531817 137.259814585 178
50.5898712822 136.596723693 175
50.3442893828 135.933632801 172
50.3442893828 135.933632801 169
-33.3991383222 -90.180361273 151
-35.1182116182 -94.821997515 148
-36.3461211154 -98.1374519736 145
-37.5740306125 -101.452906432 142
-37.5740306125 -101.452906432 139
-35.1182116182 -94.821997515 136
-33.8903021211 -91.5065430564 133
-31.9256469257 -86.2018159227 130
-26.0316813394 -70.2876345216 127
-20.8744614514 -56.3627257956 124
44.4503237965 120.0194514 121
45.6782332937 123.334905859 118
45.6782332937 123.334905859 115
45.9238151931 123.99799675 112
45.9238151931 123.99799675 109
46.6605608914 125.987269426 106
48.1340522879 129.965814776 103
48.6252160868 131.291996559 100
48.8707979862 131.955087451 97
48.8707979862 131.955087451 94
49.1163798857 132.618178343 91
49.3619617851 133.281269234 88
49.3619617851 133.281269234 85
49.3619617851 133.281269234 82
49.3619617851 133.281269234 79
-36.792574753 -104.741617531 370
-36.5582271431 -104.07447347 367
-36.3238795332 -103.40732941 364
-36.3238795332 -103.40732941 361
-36.0895319233 -102.740185349 358
-35.8551843134 -102.073041288 355
-35.8551843134 -102.073041288 352
-35.8551843134 -102.073041288 349
-35.8551843134 -102.073041288 346
-35.6208367035 -101.405897228 343
-35.3864890937 -100.738753167 340
-35.3864890937 -100.738753167 337
-35.1521414838 -100.071609106 334
-34.9177938739 -99.4044650455 331
-34.683446264 -98.7373209848 328
-34.4490986541 -98.0701769241 325
-34.2147510442 -97.4030328634 322
-34.2147510442 -97.4030328634 319
30.6995368958 87.3958719528 316
36.0895319233 102.740185349 307
36.792574753 104.741617531 304
37.9643128025 108.077337835 301
38.6673556321 110.078770017 298
39.3703984618 112.080202199 295
-1.87478087913 -5.33715248566 292
-2.57782370881 -7.33858466779 289
-3.04651892859 -8.6728727892 286
-3.98390936816 -11.341449032 283
-4.45260458794 -12.6757371535 280
-11.4830328847 -32.6900589747 277
-11.0143376649 -31.3557708533 274
-11.2486852748 -32.022914914 271
44.7603934893 127.424515595 268
44.9947410992 128.091659656 265
45.463436319 129.425947777 262
45.9321315388 130.760235899 259
46.4008267586 132.09452402 256
46.4008267586 132.09452402 253
46.8695219784 133.428812142 250
47.1038695882 134.095956202 247
47.3382171981 134.763100263 244
47.8069124179 136.097388384 241
47.572564808 135.430244324 238
47.8069124179 136.097388384 235
47.8069124179 136.097388384 232
48.2756076377 137.431676506 229
48.2756076377 137.431676506 226
48.7443028575 138.765964627 223
31.8712749453 90.7315922563 220
30.230841676 86.0615838313 217
30.230841676 86.0615838313 214
48.7443028575 138.765964627 211
48.7443028575 138.765964627 208
48.5099552476 138.098820567 205
48.5099552476 138.098820567 202
48.5099552476 138.098820567 199
48.5099552476 138.098820567 196
48.5099552476 138.098820567 193
48.5099552476 138.098820567 190
48.5099552476 138.098820567 187
48.5099552476 138.098820567 184
48.5099552476 138.098820567 181
48.2756076377 137.431676506 178
48.2756076377 137.431676506 175
47.8069124179 136.097388384 172
48.0412600278 136.764532445 169
-33.7460558244 -96.068744742 148
-35.1521414838 -100.071609106 145
-35.8551843134 -102.073041288 142
-35.8551843134 -102.073041288 139
-35.1521414838 -100.071609106 136
-31.6369273354 -90.0644481956 133
-28.8247560167 -82.0587194671 130
-26.012584698 -74.0529907386 127
-20.8569372804 -59.375821403 124
42.6512650003 121.420219049 121
43.5886554399 124.088795292 118
43.5886554399 124.088795292 115
43.5886554399 124.088795292 112
43.5886554399 124.088795292 109
44.5260458794 126.757371535 106
45.9321315388 130.760235899 103
46.4008267586 132.09452402 100
46.6351743685 132.761668081 97
46.6351743685 132.761668081 94
46.8695219784 133.428812142 91
47.1038695882 134.095956202 88
47.1038695882 134.095956202 85
47.1038695882 134.095956202 82
-35.0182952984 -105.348084911 370
-34.7952488315 -104.677078001 367
-34.5722023647 -104.00607109 364
-34.5722023647 -104.00607109 361
-34.1261094309 -102.66405727 358
-34.1261094309 -102.66405727 355
-34.1261094309 -102.66405727 352
-34.1261094309 -102.66405727 349
-34.1261094309 -102.66405727 346
-33.9030629641 -101.99305036 343
-33.6800164972 -101.322043449 340
-33.6800164972 -101.322043449 337
-33.4569700303 -100.651036539 334
-33.2339235635 -99.9800296288 331
-33.0108770966 -99.3090227186 328
-32.7878306297 -98.6380158083 325
-32.5647841628 -97.967008898 322
-32.5647841628 -97.967008898 319
-32.341737696 -97.2960019878 316
31.2265053616 93.9409674365 313
32.5647841628 97.967008898 310
33.9030629641 101.99305036 307
35.9104811659 108.032112552 301
36.5796205665 110.045133283 298
37.471806434 112.729160924 295
-2.45351113556 -7.38107601287 292
-3.12265053616 -9.39409674365 289
-4.01483640364 -12.0781243847 286
-4.46092933738 -13.4201382052 283
-5.35311520485 -16.1041658463 280
-6.02225460546 -18.117186577 277
-12.0445092109 -36.2343731541 274
-12.2675556778 -36.9053800643 271
42.6018751719 128.16231986 268
42.8249216388 128.83332677 265
43.2710145725 130.175340591 262
43.7171075063 131.517354411 259
44.16320044 132.859368232 256
44.16320044 132.859368232 253
44.6092933738 134.201382052 250
44.8323398406 134.872388962 247
45.0553863075 135.543395873 244
45.2784327744 136.214402783 241
45.5014792412 136.885409693 238
45.5014792412 136.885409693 235
45.5014792412 136.885409693 232
45.947572175 138.227423514 229
45.947572175 138.227423514 226
45.947572175 138.227423514 223
46.1706186418 138.898430424 220
28.1038548255 84.5468706928 217
27.8808083586 83.8758637826 214
46.1706186418 138.898430424 211
46.3936651087 139.569437334 208
46.1706186418 138.898430424 205
46.1706186418 138.898430424 202
46.1706186418 138.898430424 199
46.1706186418 138.898430424 196
46.1706186418 138.898430424 193
46.1706186418 138.898430424 190
46.1706186418 138.898430424 187
46.1706186418 138.898430424 184
45.947572175 138.227423514 181
45.947572175 138.227423514 178
45.7245257081 137.556416603 175
45.7245257081 137.556416603 172
45.7245257081 137.556416603 169
44.6092933738 134.201382052 160
-32.1186912291 -96.6249950775 148
-33.4569700303 -100.651036539 145
-33.9030629641 -101.99305036 142
-34.1261094309 -102.66405727 139
-33.4569700303 -100.651036539 136
-30.3343194942 -91.2569397954 133
-27.6577618917 -83.2048568723 130
-23.865971955 -71.7977393979 127
-20.0741820182 -60.3906219234 124
40.3714105033 121.452250757 121
41.2635963707 124.136278398 118
41.4866428376 124.807285308 115
41.4866428376 124.807285308 112
41.7096893045 125.478292219 109
42.6018751719 128.16231986 106
43.2710145725 130.175340591 103
43.7171075063 131.517354411 100
44.16320044 132.859368232 97
44.3862469069 133.530375142 94
44.3862469069 133.530375142 91
44.6092933738 134.201382052 88
44.6092933738 134.201382052 85
44.8323398406 134.872388962 82
-33.2340260038 -105.924499128 370
-32.8106626152 -104.575142451 367
-32.8106626152 -104.575142451 364
-32.8106626152 -104.575142451 361
-32.5989809209 -103.900464113 358
-32.3872992266 -103.225785775 355
-32.3872992266 -103.225785775 352
-32.3872992266 -103.225785775 349
-32.3872992266 -103.225785775 346
-32.1756175323 -102.551107436 343
-32.1756175323 -102.551107436 340
-31.963935838 -101.876429098 337
-31.963935838 -101.876429098 334
-31.5405724495 -100.527072421 331
-31.3288907552 -99.8523940827 328
-31.1172090609 -99.1777157443 325
-31.1172090609 -99.1777157443 322
-30.9055273666 -98.5030374059 319
-30.6938456723 -97.8283590675 316
30.9055273666 98.5030374059 310
32.1756175323 102.551107436 307
33.2340260038 105.924499128 304
34.080752781 108.623212482 301
34.5041161695 109.972569159 298
35.562524641 113.345960851 295
-2.5401803315 -8.09614006076 292
-3.38690710867 -10.7948534143 289
-3.81027049725 -12.1442100911 286
-4.44531558012 -14.1682451063 283
-5.080360663 -16.1922801215 280
-5.71540574587 -18.2163151367 277
-11.8541748803 -37.7819869502 274
-11.8541748803 -37.7819869502 271
40.4312036097 128.863562634 268
40.4312036097 128.863562634 265
41.0662486926 130.887597649 262
41.4896120812 132.236954326 259
41.9129754697 133.586311003 256
42.124657164 134.260989341 253
42.3363388583 134.935667679 250
42.3363388583 134.935667679 247
42.5480205526 135.610346018 244
42.7597022469 136.285024356 241
43.1830656355 137.634381033 238
43.1830656355 137.634381033 235
43.3947473298 138.309059371 232
43.6064290241 138.98373771 229
43.6064290241 138.98373771 226
43.8181107184 139.658416048 223
43.8181107184 139.658416048 220
26.883575175 85.6841489764 217
27.3069385636 87.0335056532 214
43.8181107184 139.658416048 211
43.8181107184 139.658416048 208
43.8181107184 139.658416048 205
43.8181107184 139.658416048 202
43.8181107184 139.658416048 199
43.8181107184 139.658416048 196
43.8181107184 139.658416048 193
43.8181107184 139.658416048 190
43.8181107184 139.658416048 187
43.8181107184 139.658416048 184
43.8181107184 139.658416048 181
43.6064290241 138.98373771 178
43.1830656355 137.634381033 175
43.3947473298 138.309059371 172
43.1830656355 137.634381033 169
-28.3653470351 -90.4068973452 151
-30.2704822837 -96.4790023907 148
-29.6354372008 -94.4549673755 145
-32.3872992266 -103.225785775 142
-32.3872992266 -103.225785775 139
-30.2704822837 -96.4790023907 136
-29.2120738122 -93.1056106988 133
-27.7303019522 -88.38286233 130
-23.4966680664 -74.889295562 127
-18.2046257091 -58.0223371021 124
38.3143866668 122.11677925 121
39.161113444 124.815492603 118
39.3727951382 125.490170942 115
39.3727951382 125.490170942 112
39.5844768325 126.16484928 109
40.4312036097 128.863562634 106
40.8545669983 130.212919311 103
41.4896120812 132.236954326 100
41.9129754697 133.586311003 97
42.124657164 134.260989341 94
42.124657164 134.260989341 91
42.3363388583 134.935667679 88
42.5480205526 135.610346018 85
42.5480205526 135.610346018 82
40.642885304 129.538240972 79
-31.4402758764 -106.470695747 370
-31.2400193421 -105.792538449 367
-31.0397628079 -105.114381151 364
-31.0397628079 -105.114381151 361
-30.6392497394 -103.758066556 358
-30.6392497394 -103.758066556 355
-30.6392497394 -103.758066556 352
-30.6392497394 -103.758066556 349
-30.6392497394 -103.758066556 346
-30.4389932052 -103.079909258 343
-30.2387366709 -102.40175196 340
-30.2387366709 -102.40175196 337
-30.0384801367 -101.723594663 334
-29.8382236024 -101.045437365 331
-29.6379670682 -100.367280067 328
-29.4377105339 -99.6891227693 325
-29.4377105339 -99.6891227693 322
-29.2374539997 -99.0109654716 319
-29.0371974654 -98.3328081738 316
27.6354017257 93.5857070896 313
28.8369409312 97.6546508761 310
30.0384801367 101.723594663 307
31.0397628079 105.114381151 304
32.0410454791 108.50516764 301
32.6418150818 110.539639533 298
33.4428412188 113.252268724 295
-3.00384801367 -10.1723594663 292
-3.6046176164 -12.2068313595 289
-4.20538721913 -14.2413032528 286
-5.00641335611 -16.9539324438 283
-5.80743949309 -19.6665616348 280
-6.20795256158 -21.0228762303 277
-7.00897869855 -23.7355054213 274
-12.8164181916 -43.402067056 271
38.2489980407 129.52804387 268
38.2489980407 129.52804387 265
38.6495111092 130.884358466 262
39.0500241777 132.240673061 259
39.4505372462 133.596987657 256
39.8510503146 134.953302252 253
39.8510503146 134.953302252 250
40.0513068489 135.63145955 247
40.2515633831 136.309616848 244
40.6520764516 137.665931443 241
40.6520764516 137.665931443 238
40.8523329859 138.344088741 235
41.0525895201 139.022246039 232
41.0525895201 139.022246039 229
41.2528460544 139.700403337 226
41.4531025886 140.378560634 223
25.0320667806 84.7696622188 220
25.6328363833 86.8041341121 217
25.432579849 86.1259768143 214
41.4531025886 140.378560634 211
41.4531025886 140.378560634 208
41.4531025886 140.378560634 205
41.4531025886 140.378560634 202
41.4531025886 140.378560634 199
41.4531025886 140.378560634 196
41.4531025886 140.378560634 193
41.2528460544 139.700403337 190
41.2528460544 139.700403337 187
41.2528460544 139.700403337 184
41.0525895201 139.022246039 181
40.8523329859 138.344088741 178
40.8523329859 138.344088741 175
40.8523329859 138.344088741 172
40.6520764516 137.665931443 169
40.0513068489 135.63145955 160
39.6507937804 134.275144955 157
-28.636684397 -96.9764935783 148
-30.0384801367 -101.723594663 145
-30.6392497394 -103.758066556 142
-30.8395062736 -104.436223854 139
-30.0384801367 -101.723594663 136
-27.6354017257 -93.5857070896 133
-25.0320667806 -84.7696622188 130
-22.4287318354 -75.9536173481 127
-18.2233446162 -61.7123140953 124
36.2464326982 122.746470893 121
37.2477153695 126.137257382 118
37.2477153695 126.137257382 115
37.2477153695 126.137257382 112
37.4479719037 126.815414679 109
38.2489980407 129.52804387 106
38.4492545749 130.206201168 103
39.4505372462 133.596987657 100
39.6507937804 134.275144955 97
39.8510503146 134.953302252 94
39.8510503146 134.953302252 91
39.8510503146 134.953302252 88
40.2515633831 136.309616848 85
40.2515633831 136.309616848 82
38.4492545749 130.206201168 79
-29.637556628 -106.98651895 370
-29.2600081359 -105.623633359 367
-29.2600081359 -105.623633359 364
-29.2600081359 -105.623633359 361
-28.8824596439 -104.260747767 358
-28.8824596439 -104.260747767 355
-28.8824596439 -104.260747767 352
-28.8824596439 -104.260747767 349
-28.8824596439 -104.260747767 346
-28.6936853978 -103.579304971 343
-28.5049111518 -102.897862175 340
-28.5049111518 -102.897862175 337
-28.5049111518 -102.897862175 334
-28.1273626597 -101.534976583 331
-27.9385884137 -100.853533788 328
-27.7498141676 -100.172090992 325
-27.5610399216 -99.4906481959 322
-27.5610399216 -99.4906481959 319
-27.3722656756 -98.8092054 316
25.8620717072 93.3576630331 313
26.8059429374 96.7648770125 310
29.2600081359 105.623633359 304
29.8263308741 107.667961746 301
30.3926536122 109.712290134 298
31.5252990884 113.800946909 295
-3.20916218265 -11.5845275297 292
-3.58671067473 -12.9474131214 289
-4.71935615096 -17.0360698966 286
-4.908130397 -17.7175126924 283
-5.66322738115 -20.4432838759 280
-6.4183243653 -23.1690550593 277
-12.6478744846 -45.6566673228 274
-13.0254229766 -47.0195529145 271
35.8671067473 129.474131214 268
36.0558809933 130.15557401 265
36.4334294854 131.518459601 262
36.8109779775 132.881345193 259
36.9997522235 133.562787989 256
37.3773007156 134.925673581 253
37.5660749616 135.607116377 250
37.7548492077 136.288559172 247
37.9436234537 136.970001968 244
37.9436234537 136.970001968 241
38.3211719458 138.33288756 238
38.5099461918 139.014330356 235
38.6987204379 139.695773152 232
38.8874946839 140.377215948 229
38.3211719458 138.33288756 226
39.0762689299 141.058658744 223
23.2192322627 83.8174638911 220
23.5967807548 85.1803494828 217
24.9182004771 89.9504490538 214
39.0762689299 141.058658744 211
39.0762689299 141.058658744 208
39.0762689299 141.058658744 205
39.0762689299 141.058658744 202
39.0762689299 141.058658744 199
39.0762689299 141.058658744 196
38.8874946839 140.377215948 193
39.0762689299 141.058658744 190
38.8874946839 140.377215948 187
38.6987204379 139.695773152 184
38.6987204379 139.695773152 181
38.3211719458 138.33288756 178
38.5099461918 139.014330356 175
38.3211719458 138.33288756 172
38.3211719458 138.33288756 169
-27.1834914295 -98.1277626042 148
-28.3161369057 -102.216419379 145
-28.8824596439 -104.260747767 142
-28.8824596439 -104.260747767 139
-28.3161369057 -102.216419379 136
-26.0508459533 -94.039105829 133
-25.1069747231 -90.6318918497 130
-20.3876185721 -73.5958219531 127
-16.6121336514 -59.9669660359 124
34.1681385329 123.341146051 121
35.1120097631 126.74836003 118
35.1120097631 126.74836003 115
35.1120097631 126.74836003 112
35.1120097631 126.74836003 109
35.6783325012 128.792688418 106
36.2446552394 130.837016806 103
36.9997522235 133.562787989 100
37.3773007156 134.925673581 97
37.5660749616 135.607116377 94
37.5660749616 135.607116377 91
37.7548492077 136.288559172 88
37.7548492077 136.288559172 85
37.9436234537 136.970001968 82
36.0558809933 130.15557401 79
-27.8263825292 -107.471821588 370
-27.4719063187 -106.102753797 367
-27.4719063187 -106.102753797 364
-27.4719063187 -106.102753797 361
-27.2946682134 -105.418219901 358
-27.1174301081 -104.733686006 355
-27.1174301081 -104.733686006 352
-27.1174301081 -104.733686006 349
-27.1174301081 -104.733686006 346
-26.9401920028 -104.04915211 343
-26.7629538975 -103.364618215 340
-26.7629538975 -103.364618215 337
-26.7629538975 -103.364618215 334
-26.408477687 -101.995550424 331
-26.408477687 -101.995550424 328
-26.0540014764 -100.626482633 325
-25.8767633711 -99.9419487374 322
-25.8767633711 -99.9419487374 319
-25.6995252658 -99.257414842 316
23.927144213 92.4120758873 313
25.3450490553 97.888347051 310
26.408477687 101.995550424 307
28.0036206345 108.156355483 301
28.7125730556 110.894491065 298
29.4215254768 113.632626647 295
-16.1286675806 -62.292584487 292
-3.8992383162 -15.0597457002 289
-4.60819073732 -17.797881282 286
-5.13990505317 -19.8514829684 283
-5.67161936901 -21.9050846548 280
-6.55780989542 -25.3277541321 277
-6.73504800071 -26.0122880275 274
-12.9383816856 -49.9709743687 271
33.6752400035 130.061440138 268
33.8524781088 130.745974033 265
34.0297162141 131.430507929 262
34.3841924247 132.79957572 259
34.7386686352 134.168643511 256
35.0931448458 135.537711301 253
35.2703829511 136.222245197 250
35.2703829511 136.222245197 247
35.4476210563 136.906779092 244
35.8020972669 138.275846883 241
35.9793353722 138.960380779 238
36.1565734775 139.644914674 235
36.1565734775 139.644914674 232
36.3338115828 140.32944857 229
36.511049688 141.013982465 226
22.5092393708 86.9358047237 223
21.6230488444 83.5131352463 220
22.1547631602 85.5667369327 217
22.5092393708 86.9358047237 214
36.6882877933 141.698516361 211
36.6882877933 141.698516361 208
36.6882877933 141.698516361 205
36.8655258986 142.383050256 202
36.6882877933 141.698516361 199
36.6882877933 141.698516361 196
36.6882877933 141.698516361 193
36.6882877933 141.698516361 190
36.511049688 141.013982465 187
36.1565734775 139.644914674 184
36.1565734775 139.644914674 181
36.1565734775 139.644914674 178
35.9793353722 138.960380779 175
35.9793353722 138.960380779 172
35.8020972669 138.275846883 169
35.8020972669 138.275846883 166
-22.5092393708 -86.9358047237 151
-23.927144213 -92.4120758873 148
-26.5857157923 -102.680084319 145
-27.1174301081 -104.733686006 142
-27.1174301081 -104.733686006 139
-25.5222871606 -98.5728809465 136
-24.4588585289 -94.4656775737 133
-22.3320012655 -86.2512708282 130
-19.8506677916 -76.6677962917 127
-15.9514294754 -61.6080505916 124
32.2573351613 124.585168974 121
32.7890494771 126.63877066 118
32.9662875824 127.323304556 115
32.9662875824 127.323304556 112
32.9662875824 127.323304556 109
33.4980018982 129.376906242 106
34.0297162141 131.430507929 103
34.9159067405 134.853177406 100
35.0931448458 135.537711301 97
35.2703829511 136.222245197 94
35.2703829511 136.222245197 91
35.4476210563 136.906779092 88
35.6248591616 137.591312988 85
35.6248591616 137.591312988 82
34.5614305299 133.484109615 79
-26.0072702625 -107.926465214 370
-25.6759674566 -106.551605784 367
-25.6759674566 -106.551605784 364
-25.6759674566 -106.551605784 361
-25.3446646507 -105.176746355 358
-25.3446646507 -105.176746355 355
-25.3446646507 -105.176746355 352
-25.3446646507 -105.176746355 349
-25.3446646507 -105.176746355 346
-25.0133618448 -103.801886925 343
-25.0133618448 -103.801886925 340
-25.0133618448 -103.801886925 337
-25.0133618448 -103.801886925 334
-24.6820590389 -102.427027496 331
-24.6820590389 -102.427027496 328
-24.350756233 -101.052168066 325
-24.1851048301 -100.364738351 322
-24.1851048301 -100.364738351 319
-24.1851048301 -100.364738351 316
22.1972879947 92.1155817746 313
23.5224992183 97.6150194925 310
24.1851048301 100.364738351 307
25.3446646507 105.176746355 304
26.1729216654 108.613894928 301
26.5042244713 109.988754358 298
27.3324814861 113.425902931 295
-15.0742776681 -62.556104041 292
-7.45431313256 -30.9343371631 289
-4.63823928248 -19.2480320126 286
-5.13519349132 -21.3103211568 283
-5.63214770016 -23.372610301 280
-6.12910190899 -25.4348994452 277
-12.258203818 -50.8697988905 274
-12.5895066239 -52.2446583199 271
31.3081151568 129.924216085 268
31.6394179626 131.299075515 265
31.8050693656 131.986505229 262
31.9707207685 132.673934944 259
32.3020235744 134.048794374 256
32.6333263803 135.423653803 253
32.9646291862 136.798513232 250
32.9646291862 136.798513232 247
33.1302805892 137.485942947 244
33.4615833951 138.860802377 241
33.4615833951 138.860802377 238
33.7928862009 140.235661806 235
33.7928862009 140.235661806 232
34.1241890068 141.610521236 229
34.1241890068 141.610521236 226
20.8720767712 86.6161440567 223
20.7064253682 85.928714342 220
20.8720767712 86.6161440567 217
20.5407739653 85.2412846273 214
34.2898404098 142.29795095 211
34.2898404098 142.29795095 208
34.2898404098 142.29795095 205
34.2898404098 142.29795095 202
34.2898404098 142.29795095 199
34.2898404098 142.29795095 196
34.2898404098 142.29795095 193
34.1241890068 141.610521236 190
33.9585376039 140.923091521 187
33.9585376039 140.923091521 184
33.7928862009 140.235661806 181
33.7928862009 140.235661806 178
33.4615833951 138.860802377 175
33.4615833951 138.860802377 172
33.2959319921 138.173372662 169
33.4615833951 138.860802377 166
-23.5224992183 -97.6150194925 148
-24.8477104419 -103.11445721 145
-25.3446646507 -105.176746355 142
-25.3446646507 -105.176746355 139
-23.8538020242 -98.989878922 136
-22.6942422036 -94.1778709188 133
-21.7003337859 -90.0532926304 130
-18.7186085329 -77.6795577652 127
-14.5773234592 -60.4938148968 124
29.8172525302 123.737348652 121
30.645509545 127.174497226 118
30.8111609479 127.861926941 115
30.9768123509 128.549356656 112
30.8111609479 127.861926941 109
31.1424637538 129.23678637 106
31.8050693656 131.986505229 103
32.4676749774 134.736224088 100
32.7989777833 136.111083518 97
32.9646291862 136.798513232 94
33.1302805892 137.485942947 91
33.1302805892 137.485942947 88
33.2959319921 138.173372662 85
33.1302805892 137.485942947 82
32.7989777833 136.111083518 79
-24.1807387748 -108.35032013 370
-23.872703886 -106.970061275 367
-23.872703886 -106.970061275 364
-23.872703886 -106.970061275 361
-23.5646689971 -105.58980242 358
-23.5646689971 -105.58980242 355
-23.5646689971 -105.58980242 352
-23.5646689971 -105.58980242 349
-23.5646689971 -105.58980242 346
-23.4106515527 -104.899672992 343
-23.2566341083 -104.209543565 340
-23.2566341083 -104.209543565 337
-23.2566341083 -104.209543565 334
-22.9485992194 -102.829284709 331
-22.9485992194 -102.829284709 328
-22.6405643306 -101.449025854 325
-22.4865468862 -100.758896427 322
-22.4865468862 -100.758896427 319
-22.3325294417 -100.068766999 316
20.638337553 92.4773432958 313
21.5624422196 96.6181198613 310
23.2566341083 104.209543565 304
24.0267213304 107.660190703 301
-12.9374653318 -57.9708719168 298
25.2588608858 113.181226123 295
-3.69641866622 -16.5631062619 292
-4.15847099949 -18.6334945447 289
-4.7745407772 -21.394012255 286
-5.08257566605 -22.7742711102 283
-5.69864544375 -25.5347888205 280
-6.31471522145 -28.2953065308 277
-6.77676755473 -30.3656948135 274
-12.6294304429 -56.5906130616 271
-12.6294304429 -56.5906130616 268
29.2633144409 131.12459124 265
29.4173318853 131.814720668 262
29.7253667742 133.194979523 259
