0 0 0 
118.793939239 0.0 436
118.086832458 0.0 433
118.086832458 0.0 430
117.379725677 0.0 427
116.672618896 0.0 424
116.672618896 0.0 421
116.672618896 0.0 418
115.258405333 0.0 415
114.551298552 0.0 412
113.844191771 0.0 409
113.844191771 0.0 406
113.844191771 0.0 403
113.844191771 0.0 400
113.844191771 0.0 397
113.13708499 0.0 394
113.13708499 0.0 391
112.429978209 0.0 388
111.722871427 0.0 385
111.015764646 0.0 382
111.015764646 0.0 379
110.308657865 0.0 376
110.308657865 0.0 373
109.601551084 0.0 370
108.894444303 0.0 367
108.894444303 0.0 364
108.187337522 0.0 361
108.187337522 0.0 358
108.187337522 0.0 355
107.48023074 0.0 352
107.48023074 0.0 349
106.773123959 0.0 346
106.066017178 0.0 343
106.066017178 0.0 340
106.066017178 0.0 337
104.651803616 0.0 334
104.651803616 0.0 331
103.237590053 0.0 328
103.237590053 0.0 325
102.530483272 0.0 322
102.530483272 0.0 319
101.823376491 0.0 316
101.823376491 0.0 313
101.823376491 0.0 310
101.11626971 0.0 307
-33.2340187158 -0.0 304
-36.7695526217 -0.0 301
-39.5979797464 -0.0 298
-42.4264068712 -0.0 295
117.379725677 0.0 292
115.965512115 0.0 289
122.329473145 0.0 286
127.279220614 0.0 283
132.936074863 0.0 280
137.17871555 0.0 277
140.007142675 0.0 274
142.8355698 0.0 271
136.471608769 0.0 268
141.421356237 0.0 265
144.249783362 0.0 262
-91.2167747731 -0.0 259
-94.0452018978 -0.0 256
-96.1665222414 -0.0 253
-98.2878425849 -0.0 250
-101.11626971 -0.0 247
-106.066017178 -0.0 244
-108.894444303 -0.0 241
-108.187337522 -0.0 238
-110.308657865 -0.0 235
-111.722871427 -0.0 232
-114.551298552 -0.0 229
-118.086832458 -0.0 226
-123.036579926 -0.0 223
-124.450793489 -0.0 220
-125.865007051 -0.0 217
-113.844191771 -0.0 214
-113.844191771 -0.0 211
-113.13708499 -0.0 208
-113.13708499 -0.0 205
-113.844191771 -0.0 202
-113.844191771 -0.0 199
-113.13708499 -0.0 196
-113.844191771 -0.0 193
-113.13708499 -0.0 190
-113.844191771 -0.0 187
-113.844191771 -0.0 184
-113.13708499 -0.0 181
-112.429978209 -0.0 178
-113.844191771 -0.0 175
-112.429978209 -0.0 172
-113.13708499 -0.0 169
-113.13708499 -0.0 166
-113.844191771 -0.0 163
-113.13708499 -0.0 160
-113.844191771 -0.0 157
-113.13708499 -0.0 154
-103.944696834 -0.0 151
-98.2878425849 -0.0 148
-51.6187950266 -0.0 142
-36.0624458405 -0.0 139
-47.3761543395 -0.0 136
-50.2045814642 -0.0 133
-19.7989898732 -0.0 130
-54.4472221514 -0.0 127
-125.865007051 -0.0 124
-127.986327395 -0.0 121
-128.693434176 -0.0 118
-129.400540957 -0.0 115
-128.693434176 -0.0 112
-131.521861301 -0.0 109
-135.057395207 -0.0 106
-135.764501988 -0.0 103
-136.471608769 -0.0 100
-137.885822331 -0.0 97
-137.885822331 -0.0 94
-138.592929113 -0.0 91
-138.592929113 -0.0 88
-139.300035894 -0.0 85
-132.228968082 -0.0 82
-132.228968082 -0.0 79
-131.521861301 -0.0 76
-131.521861301 -0.0 73
-131.521861301 -0.0 70
-129.400540957 -0.0 67
118.069988855 1.99442519671 436
118.069988855 1.99442519671 433
118.069988855 1.99442519671 430
116.655977012 1.97053986501 427
116.655977012 1.97053986501 424
116.655977012 1.97053986501 421
115.241965169 1.94665453332 418
115.241965169 1.94665453332 415
115.241965169 1.94665453332 412
113.827953327 1.92276920162 409
113.827953327 1.92276920162 406
113.827953327 1.92276920162 403
113.827953327 1.92276920162 400
113.827953327 1.92276920162 397
113.120947406 1.91082653577 394
112.413941484 1.89888386992 391
112.413941484 1.89888386992 388
111.706935563 1.88694120407 385
112.413941484 1.89888386992 382
110.999929642 1.87499853822 379
110.292923721 1.86305587238 376
110.292923721 1.86305587238 373
109.585917799 1.85111320653 370
108.878911878 1.83917054068 367
108.878911878 1.83917054068 364
108.171905957 1.82722787483 361
108.171905957 1.82722787483 358
108.171905957 1.82722787483 355
107.464900035 1.81528520898 352
107.464900035 1.81528520898 349
106.757894114 1.80334254313 346
106.757894114 1.80334254313 343
106.050888193 1.79139987728 340
105.343882272 1.77945721144 337
104.63687635 1.76751454559 334
104.63687635 1.76751454559 331
103.222864508 1.74362921389 328
103.222864508 1.74362921389 325
102.515858586 1.73168654804 322
102.515858586 1.73168654804 319
101.808852665 1.71974388219 316
101.808852665 1.71974388219 313
101.101846744 1.70780121634 310
101.101846744 1.70780121634 307
-33.2292783004 -0.561305294883 304
-36.7643079068 -0.621018624125 301
-39.592331592 -0.66878928752 298
-43.1273611984 -0.728502616762 295
113.827953327 1.92276920162 292
115.948971091 1.95859719916 289
122.312024382 2.0660811918 286
127.261065831 2.14967985274 283
133.624119123 2.25716384538 280
136.452142808 2.30493450877 277
139.280166493 2.35270517217 274
129.382083595 2.18550785029 271
135.745136887 2.29299184292 268
143.522202021 2.42436116726 265
-78.4776572627 -1.32563590919 262
-69.286580286 -1.17038125316 259
-93.3247816097 -1.57643189201 256
-96.8598112161 -1.63614522125 253
-98.9808289799 -1.6719732188 250
-101.808852665 -1.71974388219 247
-104.63687635 -1.76751454559 244
-106.757894114 -1.80334254313 241
-108.171905957 -1.82722787483 238
-111.706935563 -1.88694120407 235
-113.120947406 -1.91082653577 232
-115.241965169 -1.94665453332 229
-118.069988855 -1.99442519671 226
-121.605018461 -2.05413852595 223
-125.847053989 -2.12579452104 220
-127.261065831 -2.14967985274 217
-115.241965169 -1.94665453332 214
-114.534959248 -1.93471186747 211
-113.827953327 -1.92276920162 208
-113.120947406 -1.91082653577 205
-113.827953327 -1.92276920162 202
-113.827953327 -1.92276920162 199
-114.534959248 -1.93471186747 196
-113.827953327 -1.92276920162 193
-113.827953327 -1.92276920162 190
-113.827953327 -1.92276920162 187
-114.534959248 -1.93471186747 184
-113.120947406 -1.91082653577 181
-113.827953327 -1.92276920162 178
-113.120947406 -1.91082653577 175
-114.534959248 -1.93471186747 172
-113.827953327 -1.92276920162 169
-113.827953327 -1.92276920162 166
-114.534959248 -1.93471186747 163
-114.534959248 -1.93471186747 160
-114.534959248 -1.93471186747 157
-114.534959248 -1.93471186747 154
-98.2738230587 -1.66003055295 148
-98.9808289799 -1.6719732188 145
-52.3184381751 -0.883757272794 142
-36.7643079068 -0.621018624125 139
-48.0764026474 -0.812101277702 136
-51.6114322538 -0.871814606945 133
-22.6241894811 -0.382165307154 130
-14.847124347 -0.25079598282 127
-125.847053989 -2.12579452104 124
-128.675077674 -2.17356518444 121
-128.675077674 -2.17356518444 118
-129.382083595 -2.18550785029 115
-129.382083595 -2.18550785029 112
-131.503101359 -2.22133584783 109
-135.038130965 -2.28104917708 106
-136.452142808 -2.30493450877 103
-137.159148729 -2.31687717462 100
-137.866154651 -2.32881984047 97
-139.280166493 -2.35270517217 94
-139.280166493 -2.35270517217 91
-139.280166493 -2.35270517217 88
-139.280166493 -2.35270517217 85
-132.917113202 -2.24522117953 82
-132.917113202 -2.24522117953 79
-132.21010728 -2.23327851368 76
-132.21010728 -2.23327851368 73
-132.21010728 -2.23327851368 70
-130.796095438 -2.20939318198 67
118.72616622 4.01216335877 436
118.019462849 3.98828143401 433
118.019462849 3.98828143401 430
117.312759479 3.96439950926 427
116.606056108 3.9405175845 424
116.606056108 3.9405175845 421
115.899352738 3.91663565975 418
115.192649368 3.89275373499 415
115.192649368 3.89275373499 412
114.485945997 3.86887181024 409
113.779242627 3.84498988548 406
113.779242627 3.84498988548 403
113.779242627 3.84498988548 400
113.779242627 3.84498988548 397
113.072539257 3.82110796073 394
113.072539257 3.82110796073 391
113.072539257 3.82110796073 388
111.659132516 3.77334411122 385
111.659132516 3.77334411122 382
110.952429146 3.74946218647 379
110.245725775 3.72558026171 376
110.245725775 3.72558026171 373
109.539022405 3.70169833696 370
108.832319035 3.6778164122 367
108.832319035 3.6778164122 364
108.125615664 3.65393448745 361
108.125615664 3.65393448745 358
108.125615664 3.65393448745 355
107.418912294 3.63005256269 352
107.418912294 3.63005256269 349
106.712208923 3.60617063794 346
106.005505553 3.58228871318 343
106.005505553 3.58228871318 340
105.298802183 3.55840678843 337
104.592098812 3.53452486367 334
104.592098812 3.53452486367 331
103.885395442 3.51064293892 328
103.178692072 3.48676101417 325
102.471988701 3.46287908941 322
102.471988701 3.46287908941 319
101.765285331 3.43899716466 316
101.765285331 3.43899716466 313
101.765285331 3.43899716466 310
101.058581961 3.4151152399 307
-33.2150584066 -1.12245046346 304
-37.4552786288 -1.26574201199 301
-39.5753887398 -1.33738778626 298
-43.815608962 -1.48067933478 295
112.365835886 3.79722603597 292
114.485945997 3.86887181024 289
121.552979701 4.10769105778 286
126.499903293 4.27486453107 283
139.92726733 4.7286211014 280
136.393750478 4.60921147763 277
139.22056396 4.70473917665 274
132.153530256 4.4659199291 271
135.687047108 4.58532955287 268
143.460784182 4.84803072518 265
-74.9105572575 -2.53148402398 262
-87.6312179239 -2.96135866957 259
-94.6982516275 -3.20017791711 256
-96.1116583682 -3.24794176662 253
-98.9384718496 -3.34346946564 250
-101.765285331 -3.43899716466 247
-103.885395442 -3.51064293892 244
-106.005505553 -3.58228871318 241
-110.245725775 -3.72558026171 238
-112.365835886 -3.79722603597 235
-113.072539257 -3.82110796073 232
-115.192649368 -3.89275373499 229
-117.312759479 -3.96439950926 226
-122.259683071 -4.13157298254 223
-125.793199923 -4.25098260631 220
-126.499903293 -4.27486453107 217
-118.019462849 -3.98828143401 214
-114.485945997 -3.86887181024 211
-115.192649368 -3.89275373499 208
-115.192649368 -3.89275373499 205
-115.192649368 -3.89275373499 202
-115.192649368 -3.89275373499 199
-115.192649368 -3.89275373499 196
-114.485945997 -3.86887181024 193
-115.192649368 -3.89275373499 190
-115.192649368 -3.89275373499 187
-115.192649368 -3.89275373499 184
-114.485945997 -3.86887181024 181
-114.485945997 -3.86887181024 178
-114.485945997 -3.86887181024 175
-114.485945997 -3.86887181024 172
-114.485945997 -3.86887181024 169
-115.192649368 -3.89275373499 166
-115.192649368 -3.89275373499 163
-115.899352738 -3.91663565975 160
-115.192649368 -3.89275373499 157
-115.899352738 -3.91663565975 154
-99.6451752199 -3.36735139039 148
-98.2317684792 -3.31958754088 145
-53.0027527766 -1.79114435659 142
-53.0027527766 -1.79114435659 139
-48.0558291841 -1.62397088331 136
-53.0027527766 -1.79114435659 133
-24.7346179624 -0.835867366409 130
-11.3072539257 -0.382110796073 127
-125.793199923 -4.25098260631 124
-128.620013404 -4.34651030533 121
-129.326716775 -4.37039223008 118
-129.326716775 -4.37039223008 115
-129.326716775 -4.37039223008 112
-130.740123516 -4.41815607959 109
-134.980343738 -4.56144762812 106
-136.393750478 -4.60921147763 103
-137.807157219 -4.65697532714 100
-137.807157219 -4.65697532714 97
-139.22056396 -4.70473917665 94
-139.22056396 -4.70473917665 91
-139.92726733 -4.7286211014 88
-138.513860589 -4.68085725189 85
-135.687047108 -4.58532955287 82
-135.687047108 -4.58532955287 79
-135.687047108 -4.58532955287 76
-134.980343738 -4.56144762812 73
-134.980343738 -4.56144762812 70
-134.273640367 -4.53756570337 67
