-84.7800305676 -11.5259020017 210
-84.7800305676 -11.5259020017 207
-85.4806919773 -11.6211573901 204
-85.4806919773 -11.6211573901 201
-85.4806919773 -11.6211573901 198
-86.8820147966 -11.811668167 195
-86.8820147966 -11.811668167 192
-86.8820147966 -11.811668167 189
-87.5826762062 -11.9069235554 186
-88.2833376159 -12.0021789439 183
-88.9839990255 -12.0974343323 180
-90.3853218448 -12.2879451092 174
-90.3853218448 -12.2879451092 171
106.939756233 16.382568075 306
-27.9581062048 -4.28302433334 303
-33.5497274458 -5.13962920001 300
-39.8403013419 -6.10330967501 297
-46.130875238 -7.06699015001 294
-54.5183070994 -8.35189745001 291
-73.3900287877 -11.242938875 288
-76.8847920633 -11.7783169167 285
-76.1858394081 -11.6712413084 282
-76.1858394081 -11.6712413084 279
-77.5837447184 -11.885392525 276
-77.5837447184 -11.885392525 273
-78.2826973735 -11.9924681334 270
-78.2826973735 -11.9924681334 267
-78.2826973735 -11.9924681334 264
-78.2826973735 -11.9924681334 261
-78.2826973735 -11.9924681334 258
-78.9816500286 -12.0995437417 255
-77.5837447184 -11.885392525 252
-77.5837447184 -11.885392525 249
-76.8847920633 -11.7783169167 246
-82.4764133042 -12.6349217834 243
-83.1753659593 -12.7419973917 240
-83.1753659593 -12.7419973917 237
-83.1753659593 -12.7419973917 234
-83.1753659593 -12.7419973917 231
-83.1753659593 -12.7419973917 228
-82.4764133042 -12.6349217834 225
-83.1753659593 -12.7419973917 222
-83.1753659593 -12.7419973917 219
-83.1753659593 -12.7419973917 216
-83.8743186145 -12.849073 213
-84.5732712696 -12.9561486084 210
-84.5732712696 -12.9561486084 207
-84.5732712696 -12.9561486084 204
-84.5732712696 -12.9561486084 201
-85.2722239247 -13.0632242167 198
-85.9711765798 -13.170299825 195
-85.9711765798 -13.170299825 192
-86.6701292349 -13.2773754334 189
-86.6701292349 -13.2773754334 186
-87.3690818901 -13.3844510417 183
-88.0680345452 -13.49152665 180
-88.7669872003 -13.5986022584 177
-90.1648925105 -13.812753475 171
-90.1648925105 -13.812753475 168
106.647809564 18.186388183 306
-28.5788247852 -4.87347657193 303
-34.8522253478 -5.94326411211 300
-41.1256259104 -7.01305165229 297
-47.399026473 -8.08283919247 294
-56.4606050634 -9.62808786161 291
-75.2808067512 -12.8374504822 288
-75.9778512582 -12.9563157644 285
-75.2808067512 -12.8374504822 282
-76.6748957652 -13.0751810466 279
-76.6748957652 -13.0751810466 276
-77.3719402721 -13.1940463289 273
-78.0689847791 -13.3129116111 270
-78.0689847791 -13.3129116111 267
-78.766029286 -13.4317768934 264
-78.0689847791 -13.3129116111 261
-77.3719402721 -13.1940463289 258
-64.8251391469 -11.0544712485 255
-75.9778512582 -12.9563157644 252
-77.3719402721 -13.1940463289 249
-75.9778512582 -12.9563157644 246
-81.5542073138 -13.9072380223 243
-82.2512518208 -14.0261033046 240
-82.2512518208 -14.0261033046 237
-82.2512518208 -14.0261033046 234
-82.2512518208 -14.0261033046 228
-82.2512518208 -14.0261033046 225
-82.9482963278 -14.1449685868 222
-82.9482963278 -14.1449685868 219
-82.9482963278 -14.1449685868 216
-82.9482963278 -14.1449685868 213
-82.9482963278 -14.1449685868 210
-83.6453408347 -14.2638338691 207
-84.3423853417 -14.3826991513 204
-84.3423853417 -14.3826991513 201
-85.0394298486 -14.5015644335 198
-85.0394298486 -14.5015644335 195
-85.0394298486 -14.5015644335 192
-86.4335188625 -14.739294998 189
-86.4335188625 -14.739294998 186
-87.1305633695 -14.8581602803 183
-87.1305633695 -14.8581602803 180
-88.5246523834 -15.0958908448 177
-88.5246523834 -15.0958908448 174
106.325438954 19.9850201714 306
-29.1873753991 -5.48608396861 303
-34.7468754751 -6.53105234358 300
-41.0013130607 -7.70664176542 297
-47.2557506462 -8.88223118727 294
-57.6798132887 -10.8415468903 291
-75.0532510263 -14.1070730621 288
-76.4431260453 -14.3683151559 285
-74.3583135168 -13.9764520153 282
-75.0532510263 -14.1070730621 279
-77.1380635548 -14.4989362027 276
-77.1380635548 -14.4989362027 273
-77.8330010643 -14.6295572496 270
-77.8330010643 -14.6295572496 267
-77.8330010643 -14.6295572496 264
-77.8330010643 -14.6295572496 261
-77.1380635548 -14.4989362027 258
-76.4431260453 -14.3683151559 255
-75.7481885358 -14.237694109 252
-74.3583135168 -13.9764520153 249
-73.6633760073 -13.8458309684 246
-82.0026261213 -15.4132835308 243
-82.0026261213 -15.4132835308 240
-81.3076886118 -15.282662484 237
-81.3076886118 -15.282662484 234
-81.3076886118 -15.282662484 231
-81.3076886118 -15.282662484 228
-81.3076886118 -15.282662484 225
-82.0026261213 -15.4132835308 222
-82.0026261213 -15.4132835308 219
-82.6975636309 -15.5439045777 216
-82.6975636309 -15.5439045777 213
-82.6975636309 -15.5439045777 210
-82.6975636309 -15.5439045777 207
-83.3925011404 -15.6745256246 204
-84.0874386499 -15.8051466715 201
-84.0874386499 -15.8051466715 198
-84.7823761594 -15.9357677183 195
-84.7823761594 -15.9357677183 192
-85.4773136689 -16.0663887652 189
-86.1722511784 -16.1970098121 186
-86.1722511784 -16.1970098121 183
-86.8671886879 -16.327630859 180
-88.2570637069 -16.5888729527 177
-88.2570637069 -16.5888729527 174
-88.2570637069 -16.5888729527 171
105.972736367 21.7779509354 306
-29.0905550811 -5.9782610411 303
-35.3242454556 -7.25931697847 300
-42.2505680939 -8.68271246445 297
-48.4842584684 -9.96376840183 294
-58.873742426 -12.0988616308 291
-74.8042844942 -15.3726712485 288
-75.496916758 -15.5150107971 285
-74.8042844942 -15.3726712485 282
-75.496916758 -15.5150107971 279
-75.496916758 -15.5150107971 276
-76.1895490218 -15.6573503457 273
-76.8821812857 -15.7996898943 270
-77.5748135495 -15.9420294429 267
-75.496916758 -15.5150107971 264
-75.496916758 -15.5150107971 261
-75.496916758 -15.5150107971 258
-75.496916758 -15.5150107971 255
-74.1116522303 -15.2303316999 252
-74.8042844942 -15.3726712485 249
-69.9558586473 -14.3762944083 246
-81.0379748687 -16.6537271859 243
-81.0379748687 -16.6537271859 240
-81.0379748687 -16.6537271859 237
-81.0379748687 -16.6537271859 234
-81.0379748687 -16.6537271859 231
-81.0379748687 -16.6537271859 228
-81.0379748687 -16.6537271859 225
-81.0379748687 -16.6537271859 222
-81.0379748687 -16.6537271859 219
-81.0379748687 -16.6537271859 216
-81.7306071325 -16.7960667345 213
-82.4232393964 -16.9384062831 210
-82.4232393964 -16.9384062831 207
-82.4232393964 -16.9384062831 204
-83.1158716602 -17.0807458317 201
-83.808503924 -17.2230853803 198
-83.1158716602 -17.0807458317 195
-84.5011361879 -17.3654249289 192
-84.5011361879 -17.3654249289 189
-85.8864007155 -17.6501040261 186
-85.8864007155 -17.6501040261 183
-86.5790329794 -17.7924435747 180
-86.5790329794 -17.7924435747 177
-87.964297507 -18.0771226719 171
-87.964297507 -18.0771226719 168
105.58980242 23.5646689971 306
-28.9854359584 -6.46873266588 303
-35.8867302342 -8.00890711014 300
-42.0978950824 -9.39506410997 297
-49.6893187858 -11.0892559986 294
-60.7313896271 -13.5535351095 291
-73.1537193235 -16.3258491091 288
-74.5339781787 -16.633883998 285
-73.8438487511 -16.4798665535 282
-75.2241076063 -16.7879014424 279
-75.2241076063 -16.7879014424 276
-75.9142370339 -16.9419188868 273
-75.9142370339 -16.9419188868 270
-75.9142370339 -16.9419188868 267
-75.2241076063 -16.7879014424 264
-77.294495889 -17.2499537757 261
-75.2241076063 -16.7879014424 258
-75.2241076063 -16.7879014424 255
-73.8438487511 -16.4798665535 252
-73.8438487511 -16.4798665535 249
-80.0550135993 -17.8660235534 246
-80.0550135993 -17.8660235534 243
-80.7451430269 -18.0200409978 240
-80.0550135993 -17.8660235534 237
-80.0550135993 -17.8660235534 234
-80.0550135993 -17.8660235534 231
-80.0550135993 -17.8660235534 228
-80.7451430269 -18.0200409978 225
-80.7451430269 -18.0200409978 222
-80.7451430269 -18.0200409978 219
-80.7451430269 -18.0200409978 216
-80.7451430269 -18.0200409978 213
-80.7451430269 -18.0200409978 210
-82.1254018821 -18.3280758867 207
-82.1254018821 -18.3280758867 204
-82.1254018821 -18.3280758867 201
-82.8155313097 -18.4820933311 198
-83.5056607372 -18.6361107755 195
-84.1957901648 -18.7901282199 192
-84.1957901648 -18.7901282199 189
-84.8859195924 -18.9441456644 186
-85.57604902 -19.0981631088 183
-85.57604902 -19.0981631088 180
-86.2661784476 -19.2521805532 177
-86.2661784476 -19.2521805532 174
-87.6464373027 -19.5602154421 171
-87.6464373027 -19.5602154421 168
105.176746355 25.3446646507 306
-29.5594777337 -7.12301032667 303
-36.433774881 -8.77952435613 300
-42.6206423136 -10.2703869826 297
-50.8697988905 -12.258203818 294
-61.1812446115 -14.7429748622 291
-73.5549794768 -17.7247001152 288
-74.2424091915 -17.8903515181 285
-72.867549762 -17.5590487123 282
-74.2424091915 -17.8903515181 279
-74.9298389062 -18.0560029211 276
-74.9298389062 -18.0560029211 273
-75.617268621 -18.221654324 270
-74.9298389062 -18.0560029211 267
-74.9298389062 -18.0560029211 264
-75.617268621 -18.221654324 261
-75.617268621 -18.221654324 258
-74.2424091915 -17.8903515181 255
-72.867549762 -17.5590487123 252
-72.1801200473 -17.3933973093 249
-79.7418469094 -19.2155627417 246
-79.7418469094 -19.2155627417 243
-79.7418469094 -19.2155627417 240
-79.7418469094 -19.2155627417 237
-79.7418469094 -19.2155627417 234
-80.4292766241 -19.3812141447 231
-79.7418469094 -19.2155627417 228
-79.7418469094 -19.2155627417 225
-79.7418469094 -19.2155627417 222
-80.4292766241 -19.3812141447 219
-80.4292766241 -19.3812141447 216
-80.4292766241 -19.3812141447 213
-80.4292766241 -19.3812141447 210
-81.1167063389 -19.5468655476 207
-81.8041360536 -19.7125169506 204
-81.8041360536 -19.7125169506 201
-82.4915657683 -19.8781683535 198
-83.1789954831 -20.0438197564 195
-83.1789954831 -20.0438197564 192
-83.8664251978 -20.2094711594 189
-83.8664251978 -20.2094711594 186
-85.2412846273 -20.5407739653 183
-85.2412846273 -20.5407739653 180
-85.928714342 -20.7064253682 177
-85.928714342 -20.7064253682 174
-86.6161440567 -20.8720767712 171
104.733686006 27.1174301081 306
-29.4349575049 -7.62123852711 303
-36.2802964595 -9.39361957993 300
-42.4411015186 -10.9887625275 297
-51.3400421596 -13.2928578961 294
-60.9235166961 -15.7741913701 291
-73.2451268144 -18.9644772651 288
-74.6141946053 -19.3189534757 285
-72.560592919 -18.7872391599 282
-73.9296607099 -19.1417153704 279
-74.6141946053 -19.3189534757 276
-74.6141946053 -19.3189534757 273
-74.6141946053 -19.3189534757 270
-73.9296607099 -19.1417153704 267
-73.2451268144 -18.9644772651 264
-74.6141946053 -19.3189534757 261
-75.2987285008 -19.496191581 258
-73.2451268144 -18.9644772651 255
-71.191525128 -18.4327629493 252
-72.560592919 -18.7872391599 249
-78.7213979781 -20.3823821074 246
-78.7213979781 -20.3823821074 243
-79.4059318736 -20.5596202127 240
-79.4059318736 -20.5596202127 237
-79.4059318736 -20.5596202127 234
-79.4059318736 -20.5596202127 231
-79.4059318736 -20.5596202127 228
-79.4059318736 -20.5596202127 225
-80.090465769 -20.736858318 222
-80.090465769 -20.736858318 219
-80.090465769 -20.736858318 216
-80.090465769 -20.736858318 213
-80.090465769 -20.736858318 210
-80.090465769 -20.736858318 207
-80.7749996645 -20.9140964232 204
-81.45953356 -21.0913345285 201
-81.45953356 -21.0913345285 198
-82.1440674554 -21.2685726338 195
-82.8286013509 -21.4458107391 192
-83.5131352463 -21.6230488444 189
-84.1976691418 -21.8002869497 186
-84.1976691418 -21.8002869497 183
-85.5667369327 -22.1547631602 180
-85.5667369327 -22.1547631602 177
-85.5667369327 -22.1547631602 174
-85.5667369327 -22.1547631602 171
104.260747767 28.8824596439 306
-29.3020402221 -8.11729257965 303
-36.1164681807 -10.00503504 300
-42.9308961393 -11.8927775004 297
-51.7896524855 -14.3468426989 294
-62.6927372193 -17.3672306355 291
-72.2329363614 -20.0100700801 288
-72.2329363614 -20.0100700801 285
-71.5514935655 -19.821295834 282
-73.5958219531 -20.3876185721 279
-73.5958219531 -20.3876185721 276
-73.5958219531 -20.3876185721 273
-73.5958219531 -20.3876185721 270
-74.277264749 -20.5763928182 267
-72.9143791573 -20.1988443261 264
-74.277264749 -20.5763928182 261
-73.5958219531 -20.3876185721 258
-71.5514935655 -19.821295834 255
-70.8700507697 -19.632521588 252
-71.5514935655 -19.821295834 249
-77.6844787283 -21.5202640484 246
-77.6844787283 -21.5202640484 243
-78.3659215242 -21.7090382944 240
-78.3659215242 -21.7090382944 237
-78.3659215242 -21.7090382944 234
-78.3659215242 -21.7090382944 231
-79.04736432 -21.8978125404 228
-79.04736432 -21.8978125404 225
-79.04736432 -21.8978125404 222
-79.04736432 -21.8978125404 219
-79.7288071159 -22.0865867865 216
-79.7288071159 -22.0865867865 213
-79.7288071159 -22.0865867865 210
-79.7288071159 -22.0865867865 207
-79.7288071159 -22.0865867865 204
-81.0916927076 -22.4641352786 201
-81.7731355035 -22.6529095246 198
-81.7731355035 -22.6529095246 195
-82.4545782993 -22.8416837706 192
-82.4545782993 -22.8416837706 189
-83.1360210952 -23.0304580167 186
-83.8174638911 -23.2192322627 183
-84.4989066869 -23.4080065088 180
-84.4989066869 -23.4080065088 177
-85.1803494828 -23.5967807548 174
-85.1803494828 -23.5967807548 171
-85.1803494828 -23.5967807548 168
103.758066556 30.6392497394 306
-29.838921101 -8.81128750675 303
-36.6204940785 -10.8138528492 300
-44.0802243538 -13.0166747259 297
-51.539954629 -15.2194966026 294
-69.8502016683 -20.6264230272 291
-71.2065162638 -21.0269360957 288
-71.2065162638 -21.0269360957 285
-71.2065162638 -21.0269360957 282
-72.5628308593 -21.4274491642 279
-72.5628308593 -21.4274491642 276
-72.5628308593 -21.4274491642 273
-72.5628308593 -21.4274491642 270
-73.2409881571 -21.6277056984 267
-72.5628308593 -21.4274491642 264
-73.2409881571 -21.6277056984 261
-71.8846735616 -21.2271926299 258
-70.5283589661 -20.8266795614 255
-71.2065162638 -21.0269360957 252
-70.5283589661 -20.8266795614 249
-77.3099319436 -22.8292449039 246
-77.3099319436 -22.8292449039 243
-77.3099319436 -22.8292449039 240
-77.3099319436 -22.8292449039 237
-77.3099319436 -22.8292449039 234
-77.9880892413 -23.0295014381 231
-77.9880892413 -23.0295014381 228
-77.9880892413 -23.0295014381 225
-78.6662465391 -23.2297579724 222
-78.6662465391 -23.2297579724 219
-78.6662465391 -23.2297579724 216
-79.3444038368 -23.4300145066 213
-79.3444038368 -23.4300145066 210
-79.3444038368 -23.4300145066 207
-79.3444038368 -23.4300145066 204
-80.0225611346 -23.6302710408 201
-80.7007184323 -23.8305275751 198
-80.7007184323 -23.8305275751 195
-82.0570330278 -24.2310406436 192
-81.3788757301 -24.0307841093 189
-82.7351903256 -24.4312971778 186
-83.4133476233 -24.6315537121 183
-84.0915049211 -24.8318102463 180
-84.0915049211 -24.8318102463 177
-84.7696622188 -25.0320667806 174
-84.7696622188 -25.0320667806 171
-84.7696622188 -25.0320667806 168
103.225785775 32.3872992266 306
-28.3364902127 -8.89063116025 303
-35.757951935 -11.2191297975 300
-42.504735319 -13.3359467404 297
-50.6008753798 -15.8761270719 294
-62.0704071325 -19.4747158748 291
-71.5159038701 -22.4382595949 288
-71.5159038701 -22.4382595949 285
-71.5159038701 -22.4382595949 282
-72.8652605469 -22.8616229835 279
-72.1905822085 -22.6499412892 276
-72.8652605469 -22.8616229835 273
-72.8652605469 -22.8616229835 270
-74.2146172236 -23.2849863721 267
-74.2146172236 -23.2849863721 264
-74.2146172236 -23.2849863721 261
-73.5399388852 -23.0733046778 258
-70.1665471933 -22.0148962063 255
-70.1665471933 -22.0148962063 252
-71.5159038701 -22.4382595949 249
-76.9133305772 -24.1317131492 246
-77.5880089156 -24.3433948435 243
-77.5880089156 -24.3433948435 240
-77.5880089156 -24.3433948435 237
-77.5880089156 -24.3433948435 234
-78.262687254 -24.5550765378 231
-78.262687254 -24.5550765378 228
-78.262687254 -24.5550765378 225
-77.5880089156 -24.3433948435 222
-78.9373655924 -24.7667582321 219
-78.9373655924 -24.7667582321 216
-78.9373655924 -24.7667582321 213
-78.9373655924 -24.7667582321 210
-78.9373655924 -24.7667582321 207
-78.9373655924 -24.7667582321 204
-80.2867222692 -25.1901216207 201
-80.2867222692 -25.1901216207 198
-80.9614006076 -25.401803315 195
-80.9614006076 -25.401803315 192
-82.3107572844 -25.8251667036 189
-82.3107572844 -25.8251667036 186
-82.9854356228 -26.0368483979 183
-83.6601139612 -26.2485300922 180
-84.3347922996 -26.4602117865 177
-84.3347922996 -26.4602117865 174
-84.3347922996 -26.4602117865 171
-84.3347922996 -26.4602117865 168
102.66405727 34.1261094309 306
-29.5243040515 -9.81404454223 303
-36.2343731541 -12.0445092109 300
-43.6154491669 -14.4980203465 297
-53.0095459106 -17.6206708826 294
-70.4557255774 -23.4198790212 291
-70.4557255774 -23.4198790212 288
-70.4557255774 -23.4198790212 285
-71.7977393979 -23.865971955 282
-71.1267324876 -23.6429254881 279
-71.1267324876 -23.6429254881 276
-71.7977393979 -23.865971955 273
-72.4687463081 -24.0890184218 270
-73.1397532184 -24.3120648887 267
-72.4687463081 -24.0890184218 264
-71.7977393979 -23.865971955 261
-71.1267324876 -23.6429254881 258
-70.4557255774 -23.4198790212 255
-69.1137117568 -22.9737860875 252
-65.7586772055 -21.8585537531 249
-76.4947877697 -25.427297223 246
-76.4947877697 -25.427297223 243
-76.4947877697 -25.427297223 240
-76.4947877697 -25.427297223 237
-76.4947877697 -25.427297223 234
-76.4947877697 -25.427297223 231
-77.16579468 -25.6503436899 228
-77.16579468 -25.6503436899 225
-77.16579468 -25.6503436899 222
-77.8368015902 -25.8733901568 219
-77.8368015902 -25.8733901568 216
-78.5078085005 -26.0964366236 213
-78.5078085005 -26.0964366236 210
-79.1788154107 -26.3194830905 207
-79.1788154107 -26.3194830905 204
-79.849822321 -26.5425295574 201
-79.849822321 -26.5425295574 198
-80.5208292313 -26.7655760243 195
-81.1918361415 -26.9886224911 192
-80.5208292313 -26.7655760243 189
-81.8628430518 -27.211668958 186
-82.533849962 -27.4347154249 183
-83.2048568723 -27.6577618917 180
-83.2048568723 -27.6577618917 177
-83.8758637826 -27.8808083586 174
-83.8758637826 -27.8808083586 171
-83.8758637826 -27.8808083586 168
102.073041288 35.8551843134 306
-29.3543386712 -10.3112948352 303
-36.6929233389 -12.889118544 300
-44.0315080067 -15.4669422529 297
-54.7058129781 -19.2165040111 294
-70.0501263743 -24.6064990386 291
-69.3829823136 -24.3721514287 288
-70.0501263743 -24.6064990386 285
-70.7172704351 -24.8408466485 282
-70.7172704351 -24.8408466485 279
-71.3844144958 -25.0751942584 276
-72.0515585565 -25.3095418683 273
-72.0515585565 -25.3095418683 270
-71.3844144958 -25.0751942584 267
-72.0515585565 -25.3095418683 264
-72.0515585565 -25.3095418683 261
-70.7172704351 -24.8408466485 258
-70.0501263743 -24.6064990386 255
-67.3815501315 -23.6691085991 252
-62.7115417066 -22.0286753298 249
-76.0544229207 -26.7156275277 246
-76.0544229207 -26.7156275277 243
-76.0544229207 -26.7156275277 240
-75.38727886 -26.4812799178 237
-76.0544229207 -26.7156275277 234
-76.0544229207 -26.7156275277 231
-76.0544229207 -26.7156275277 228
-76.7215669814 -26.9499751376 225
-76.7215669814 -26.9499751376 222
-76.7215669814 -26.9499751376 219
-77.3887110421 -27.1843227474 216
-77.3887110421 -27.1843227474 213
-78.0558551028 -27.4186703573 210
-78.0558551028 -27.4186703573 207
-78.7229991635 -27.6530179672 204
-78.7229991635 -27.6530179672 201
-78.7229991635 -27.6530179672 198
-79.3901432243 -27.8873655771 195
-80.7244313457 -28.3560607969 192
-80.057287285 -28.121713187 189
-80.7244313457 -28.3560607969 186
-81.3915754064 -28.5904084068 183
-82.0587194671 -28.8247560167 180
-82.7258635278 -29.0591036266 177
-83.3930075885 -29.2934512365 174
-83.3930075885 -29.2934512365 171
-83.3930075885 -29.2934512365 168
101.452906432 37.5740306125 306
-30.5021810188 -11.2967673737 303
-37.1330899359 -13.752586368 300
-45.0901806365 -16.6995691611 297
-55.0365440122 -20.3832976525 294
-70.2876345216 -26.0316813394 291
-68.2983618465 -25.2949356411 288
-69.6245436299 -25.78609944 285
-69.6245436299 -25.78609944 282
-70.9507254133 -26.2772632388 279
-69.6245436299 -25.78609944 276
-70.9507254133 -26.2772632388 273
-71.613816305 -26.5228451383 270
-70.9507254133 -26.2772632388 267
-71.613816305 -26.5228451383 264
-70.9507254133 -26.2772632388 261
-69.6245436299 -25.78609944 258
-67.6352709548 -25.0493537417 255
-66.972180063 -24.8037718423 252
-74.2661798719 -27.505172736 249
-74.2661798719 -27.505172736 246
-74.2661798719 -27.505172736 243
-74.9292707636 -27.7507546354 240
-74.9292707636 -27.7507546354 237
-75.5923616553 -27.9963365348 234
-75.5923616553 -27.9963365348 231
-75.5923616553 -27.9963365348 228
-75.5923616553 -27.9963365348 225
-75.5923616553 -27.9963365348 222
-76.255452547 -28.2419184343 219
-76.255452547 -28.2419184343 216
-76.255452547 -28.2419184343 213
-76.9185434387 -28.4875003337 210
-77.5816343305 -28.7330822331 207
-77.5816343305 -28.7330822331 204
-78.2447252222 -28.9786641325 201
-78.9078161139 -29.224246032 198
-78.2447252222 -28.9786641325 195
-79.5709070056 -29.4698279314 192
-79.5709070056 -29.4698279314 189
-80.897088789 -29.9609917303 186
-80.897088789 -29.9609917303 183
-81.5601796807 -30.2065736297 180
-82.2232705725 -30.4521555291 177
-82.8863614642 -30.6977374285 174
-82.8863614642 -30.6977374285 171
-82.8863614642 -30.6977374285 168
100.80382961 39.2821579845 306
-30.307033739 -11.8103220084 303
-37.554367894 -14.6345294452 300
-45.4605506085 -17.7154830126 297
-54.6844304421 -21.3099288413 294
-68.5202501925 -26.7015975842 291
-68.5202501925 -26.7015975842 288
-68.5202501925 -26.7015975842 285
-69.1790987521 -26.9583437149 282
-69.1790987521 -26.9583437149 279
-69.8379473116 -27.2150898455 276
-70.4967958712 -27.4718359761 273
-70.4967958712 -27.4718359761 270
-70.4967958712 -27.4718359761 267
-70.4967958712 -27.4718359761 264
-69.8379473116 -27.2150898455 261
-67.861401633 -26.4448514536 258
-67.861401633 -26.4448514536 255
-66.5437045139 -25.9313591924 252
-73.7910386689 -28.7555666292 249
-73.7910386689 -28.7555666292 246
-73.7910386689 -28.7555666292 243
-73.7910386689 -28.7555666292 240
-73.7910386689 -28.7555666292 237
-73.7910386689 -28.7555666292 234
-74.4498872284 -29.0123127598 231
-74.4498872284 -29.0123127598 228
-75.108735788 -29.2690588904 225
-75.108735788 -29.2690588904 222
-75.108735788 -29.2690588904 219
-75.108735788 -29.2690588904 216
-75.7675843475 -29.525805021 213
-76.4264329071 -29.7825511517 210
-76.4264329071 -29.7825511517 207
-77.0852814666 -30.0392972823 204
-77.7441300262 -30.2960434129 201
-77.7441300262 -30.2960434129 198
-79.0618271452 -30.8095356741 195
-79.0618271452 -30.8095356741 192
-79.7206757048 -31.0662818048 189
-79.7206757048 -31.0662818048 186
-80.3795242643 -31.3230279354 183
-81.0383728239 -31.579774066 180
-81.6972213834 -31.8365201966 177
-81.6972213834 -31.8365201966 174
-82.356069943 -32.0932663272 171
-81.6972213834 -31.8365201966 168
100.125995988 40.9790791436 306
-30.1032406238 -12.3205074549 303
-37.9562599169 -15.534552878 300
-46.4636974845 -19.0164354196 297
-57.5888081498 -23.5696664355 294
-67.4050822663 -27.5872232143 291
-67.4050822663 -27.5872232143 288
-68.0595005407 -27.8550603329 285
-69.3683370896 -28.3907345701 282
-68.7139188151 -28.1228974515 279
-68.7139188151 -28.1228974515 276
-68.7139188151 -28.1228974515 273
-70.022755364 -28.6585716887 270
-70.022755364 -28.6585716887 267
-69.3683370896 -28.3907345701 264
-68.0595005407 -27.8550603329 261
-66.7506639918 -27.3193860957 258
-66.0962457174 -27.0515489771 255
-64.7874091686 -26.51587474 252
-72.6404284617 -29.729920163 249
-72.6404284617 -29.729920163 246
-73.2948467361 -29.9977572816 243
-73.2948467361 -29.9977572816 240
-73.2948467361 -29.9977572816 237
-73.2948467361 -29.9977572816 234
-73.2948467361 -29.9977572816 231
-73.2948467361 -29.9977572816 228
-73.9492650106 -30.2655944002 225
-73.9492650106 -30.2655944002 222
-74.603683285 -30.5334315187 219
-74.603683285 -30.5334315187 216
-74.603683285 -30.5334315187 213
-75.9125198339 -31.0691057559 210
-75.9125198339 -31.0691057559 207
-75.9125198339 -31.0691057559 204
-77.2213563827 -31.6047799931 201
-77.2213563827 -31.6047799931 198
-77.2213563827 -31.6047799931 195
-77.8757746572 -31.8726171117 192
-78.5301929316 -32.1404542303 189
-78.5301929316 -32.1404542303 186
-79.184611206 -32.4082913488 183
-79.8390294804 -32.6761284674 180
-80.4934477549 -32.943965586 177
-81.1478660293 -33.2118027046 174
-81.1478660293 -33.2118027046 171
-81.1478660293 -33.2118027046 168
99.4195989338 42.6643100007 306
-30.5406611104 -13.1060298695 303
-38.338276713 -16.4522502617 300
-47.4354949161 -20.3561740526 297
-57.8323157197 -24.8178012423 294
-67.579335223 -29.0005767325 291
-67.579335223 -29.0005767325 288
-67.579335223 -29.0005767325 285
-68.2291365232 -29.2794284319 282
-68.2291365232 -29.2794284319 279
-68.2291365232 -29.2794284319 276
-69.5287391236 -29.8371318306 273
-68.8789378234 -29.5582801312 270
-69.5287391236 -29.8371318306 267
-67.579335223 -29.0005767325 264
-68.2291365232 -29.2794284319 261
-66.9295339228 -28.7217250332 258
-64.9801300221 -27.8851699351 255
-65.6299313223 -28.1640216345 252
-72.1279443245 -30.952538628 249
-72.7777456248 -31.2313903273 246
-73.427546925 -31.5102420267 243
-72.7777456248 -31.2313903273 240
-72.7777456248 -31.2313903273 237
-72.7777456248 -31.2313903273 234
-72.7777456248 -31.2313903273 231
-72.7777456248 -31.2313903273 228
-72.7777456248 -31.2313903273 225
-73.427546925 -31.5102420267 222
-74.0773482252 -31.789093726 219
-74.0773482252 -31.789093726 216
-74.0773482252 -31.789093726 213
-75.3769508256 -32.3467971247 210
-75.3769508256 -32.3467971247 207
-75.3769508256 -32.3467971247 204
-76.0267521259 -32.6256488241 201
-76.6765534261 -32.9045005234 198
-76.6765534261 -32.9045005234 195
-77.3263547263 -33.1833522228 192
-77.9761560265 -33.4622039221 189
-77.9761560265 -33.4622039221 186
-78.6259573267 -33.7410556215 183
-79.9255599272 -34.2987590202 180
-79.9255599272 -34.2987590202 177
-80.5753612274 -34.5776107196 174
-81.2251625276 -34.8564624189 171
-81.2251625276 -34.8564624189 168
98.6848399656 44.337369802 306
-30.9599497931 -13.9097630751 303
-38.0549382874 -17.0974171132 300
-47.0849236437 -21.1544313434 297
-63.8548964484 -28.6888863424 294
-66.4348922645 -29.8480332654 291
-66.4348922645 -29.8480332654 288
-67.7248901725 -30.4276067268 285
-67.0798912185 -30.1378199961 282
-68.3698891265 -30.7173934576 279
-67.7248901725 -30.4276067268 276
-67.7248901725 -30.4276067268 273
-67.7248901725 -30.4276067268 270
-67.0798912185 -30.1378199961 267
-67.7248901725 -30.4276067268 264
-68.3698891265 -30.7173934576 261
-66.4348922645 -29.8480332654 258
-65.1448943564 -29.2684598039 255
-58.6949048162 -26.3705924966 252
-71.5948838966 -32.1663271112 249
-71.5948838966 -32.1663271112 246
-71.5948838966 -32.1663271112 243
-72.2398828507 -32.456113842 240
-72.2398828507 -32.456113842 237
-72.2398828507 -32.456113842 234
-72.2398828507 -32.456113842 231
-72.2398828507 -32.456113842 228
-72.2398828507 -32.456113842 225
-72.2398828507 -32.456113842 222
-73.5298807587 -33.0356873034 219
-73.5298807587 -33.0356873034 216
-73.5298807587 -33.0356873034 213
-74.8198786668 -33.6152607649 210
-74.8198786668 -33.6152607649 207
-74.8198786668 -33.6152607649 204
-76.1098765748 -34.1948342263 201
-76.1098765748 -34.1948342263 198
-76.7548755288 -34.4846209571 195
-76.7548755288 -34.4846209571 192
-77.3998744829 -34.7744076878 189
-77.3998744829 -34.7744076878 186
-78.6898723909 -35.3539811493 183
-78.6898723909 -35.3539811493 180
-79.3348713449 -35.64376788 177
-79.979870299 -35.9335546107 174
-79.979870299 -35.9335546107 171
-79.979870299 -35.9335546107 168
97.9219286915 45.9977812653 306
-30.7206050797 -14.4306764754 303
-39.6807815613 -18.6396237807 300
-48.000945437 -22.5479319928 297
-64.0012605827 -30.0639093237 294
-65.9212984002 -30.9658266034 291
-65.9212984002 -30.9658266034 288
-65.9212984002 -30.9658266034 285
-66.561311006 -31.2664656967 282
-66.561311006 -31.2664656967 279
-66.561311006 -31.2664656967 276
-67.2013236118 -31.5671047899 273
-65.9212984002 -30.9658266034 270
-67.2013236118 -31.5671047899 267
-67.2013236118 -31.5671047899 264
-65.9212984002 -30.9658266034 261
-65.2812857944 -30.6651875102 258
-62.721235371 -29.4626311372 255
-57.6011345244 -27.0575183914 252
-71.0413992468 -33.3709393493 249
-71.0413992468 -33.3709393493 246
-71.0413992468 -33.3709393493 243
-71.0413992468 -33.3709393493 240
-71.0413992468 -33.3709393493 237
-71.0413992468 -33.3709393493 234
-71.0413992468 -33.3709393493 231
-71.6814118526 -33.6715784426 228
-71.6814118526 -33.6715784426 225
-71.6814118526 -33.6715784426 222
-71.6814118526 -33.6715784426 219
-72.3214244585 -33.9722175358 216
-72.9614370643 -34.272856629 213
-72.9614370643 -34.272856629 210
-74.2414622759 -34.8741348155 207
-74.2414622759 -34.8741348155 204
-75.5214874876 -35.475413002 201
-75.5214874876 -35.475413002 198
-75.5214874876 -35.475413002 195
-76.1615000934 -35.7760520952 192
-76.1615000934 -35.7760520952 189
-76.8015126992 -36.0766911885 186
-78.0815379109 -36.6779693749 183
-78.0815379109 -36.6779693749 180
-78.7215505167 -36.9786084682 177
-78.7215505167 -36.9786084682 174
-79.3615631226 -37.2792475614 171
-79.3615631226 -37.2792475614 168
97.1310827509 47.6450707171 306
-30.4724965493 -14.9474731661 303
-39.995151721 -19.6185585306 300
-48.8829632145 -23.978238204 297
-64.7540551673 -31.7633804781 294
-65.3888988454 -32.074786169 291
-65.3888988454 -32.074786169 288
-66.0237425235 -32.38619186 285
-65.3888988454 -32.074786169 282
-66.0237425235 -32.38619186 279
-66.0237425235 -32.38619186 276
-66.6585862016 -32.6975975509 273
-67.2934298797 -33.0090032419 270
-66.0237425235 -32.38619186 267
-66.0237425235 -32.38619186 264
-65.3888988454 -32.074786169 261
-64.1192114892 -31.4519747871 258
-63.4843678111 -31.1405690961 255
-69.8328045922 -34.2546260057 252
-70.4676482703 -34.5660316967 249
-70.4676482703 -34.5660316967 246
-70.4676482703 -34.5660316967 243
-70.4676482703 -34.5660316967 240
-70.4676482703 -34.5660316967 237
-70.4676482703 -34.5660316967 234
-70.4676482703 -34.5660316967 231
-71.1024919484 -34.8774373877 228
-71.1024919484 -34.8774373877 225
-71.1024919484 -34.8774373877 222
-71.7373356265 -35.1888430786 219
-72.3721793046 -35.5002487696 216
-72.3721793046 -35.5002487696 213
-73.6418666608 -36.1230601515 210
-73.6418666608 -36.1230601515 207
-73.6418666608 -36.1230601515 204
-74.911554017 -36.7458715334 201
-74.911554017 -36.7458715334 198
-75.5463976952 -37.0572772244 195
-75.5463976952 -37.0572772244 192
-76.1812413733 -37.3686829154 189
-76.1812413733 -37.3686829154 186
-77.4509287295 -37.9914942973 183
-77.4509287295 -37.9914942973 180
-78.7206160857 -38.6143056792 177
-78.7206160857 -38.6143056792 174
-78.7206160857 -38.6143056792 171
-78.7206160857 -38.6143056792 168
96.3125277523 49.278768227 306
-30.8451886265 -15.7820891707 303
-40.9170869536 -20.9354244102 300
-49.1005043443 -25.1225092922 297
-64.2083518348 -32.8525121513 294
-64.2083518348 -32.8525121513 291
-64.2083518348 -32.8525121513 288
-65.4673391257 -33.4966790563 285
-64.8378454803 -33.1745956038 282
-65.4673391257 -33.4966790563 279
-64.8378454803 -33.1745956038 276
-65.4673391257 -33.4966790563 273
-66.0968327712 -33.8187625087 270
-66.0968327712 -33.8187625087 267
-47.8415170534 -24.4783423873 264
-65.4673391257 -33.4966790563 261
-63.5788581894 -32.5304286989 258
-61.6903772531 -31.5641783415 255
-69.2443009984 -35.429179771 252
-69.8737946438 -35.7512632235 249
-69.8737946438 -35.7512632235 246
-69.8737946438 -35.7512632235 243
-69.8737946438 -35.7512632235 240
-69.8737946438 -35.7512632235 237
-69.8737946438 -35.7512632235 234
-69.8737946438 -35.7512632235 231
-70.5032882892 -36.073346676 228
-69.8737946438 -35.7512632235 225
-70.5032882892 -36.073346676 222
-71.1327819347 -36.3954301284 219
-71.1327819347 -36.3954301284 216
-72.3917692256 -37.0395970334 213
-72.3917692256 -37.0395970334 210
-72.3917692256 -37.0395970334 207
-73.021262871 -37.3616804858 204
-73.6507565164 -37.6837639383 201
-74.9097438073 -38.3279308432 198
-74.9097438073 -38.3279308432 195
-74.9097438073 -38.3279308432 192
-74.9097438073 -38.3279308432 189
-75.5392374528 -38.6500142957 186
-76.1687310982 -38.9720977482 183
-76.7982247436 -39.2941812006 180
-78.0572120345 -39.9383481055 177
-78.0572120345 -39.9383481055 174
-78.0572120345 -39.9383481055 171
-78.0572120345 -39.9383481055 168
95.4664972088 50.8984077422 306
-31.1982017022 -16.6334665824 303
-41.1816262469 -21.9561758888 300
-50.5410867576 -26.9462158635 297
-64.2682955065 -34.2649411598 294
-63.6443314725 -33.9322718281 291
-63.6443314725 -33.9322718281 288
-64.2682955065 -34.2649411598 285
-64.8922595406 -34.5976104914 282
-64.2682955065 -34.2649411598 279
-64.2682955065 -34.2649411598 276
-65.5162235746 -34.9302798231 273
-64.8922595406 -34.5976104914 270
-65.5162235746 -34.9302798231 267
-63.6443314725 -33.9322718281 264
-63.6443314725 -33.9322718281 261
-61.7724393704 -32.9342638332 258
-59.2765832342 -31.6035865066 255
-69.2600077789 -36.926295813 252
-69.2600077789 -36.926295813 249
-69.2600077789 -36.926295813 246
-69.2600077789 -36.926295813 243
-69.2600077789 -36.926295813 240
-69.2600077789 -36.926295813 237
-69.2600077789 -36.926295813 234
-69.2600077789 -36.926295813 231
-69.2600077789 -36.926295813 228
-69.8839718129 -37.2589651446 225
-70.507935847 -37.5916344763 222
-70.507935847 -37.5916344763 219
-70.507935847 -37.5916344763 216
-71.131899881 -37.9243038079 213
-71.7558639151 -38.2569731396 210
-72.3798279491 -38.5896424712 207
-73.0037919832 -38.9223118029 204
-73.6277560172 -39.2549811345 201
-74.2517200513 -39.5876504662 198
-74.2517200513 -39.5876504662 195
-74.2517200513 -39.5876504662 192
-74.8756840853 -39.9203197978 189
-74.8756840853 -39.9203197978 186
-75.4996481193 -40.2529891295 183
-76.1236121534 -40.5856584611 180
-77.3715402215 -41.2509971244 177
-77.3715402215 -41.2509971244 174
-77.3715402215 -41.2509971244 171
-77.9955042555 -41.583666456 168
94.5932324717 52.5035272202 306
-32.1493339119 -17.8443360487 303
-42.0414366541 -23.3349009868 300
-50.6970265534 -28.1391453076 297
-63.0621549811 -35.0023514801 294
-62.4438985597 -34.6591911715 291
-63.0621549811 -35.0023514801 288
-63.6804114025 -35.3455117888 285
-64.2986678239 -35.6886720974 282
-63.6804114025 -35.3455117888 279
-64.2986678239 -35.6886720974 276
-64.2986678239 -35.6886720974 273
-64.2986678239 -35.6886720974 270
-63.0621549811 -35.0023514801 267
-63.6804114025 -35.3455117888 264
-61.8256421383 -34.3160308629 261
-60.5891292956 -33.6297102456 258
-59.9708728742 -33.286549937 255
-68.0082063522 -37.7476339492 252
-68.6264627736 -38.0907942578 249
-68.6264627736 -38.0907942578 246
-68.6264627736 -38.0907942578 243
-68.6264627736 -38.0907942578 240
-68.6264627736 -38.0907942578 237
-68.6264627736 -38.0907942578 234
-68.6264627736 -38.0907942578 231
-68.6264627736 -38.0907942578 228
-68.6264627736 -38.0907942578 225
-69.8629756163 -38.7771148751 222
-69.2447191949 -38.4339545664 219
-69.8629756163 -38.7771148751 216
-70.4812320377 -39.1202751837 213
-71.0994884591 -39.4634354923 210
-71.0994884591 -39.4634354923 207
-72.3360013019 -40.1497561096 204
-72.3360013019 -40.1497561096 201
-73.5725141446 -40.8360767268 198
-73.5725141446 -40.8360767268 195
-73.5725141446 -40.8360767268 192
-73.5725141446 -40.8360767268 189
-74.190770566 -41.1792370355 186
-74.8090269874 -41.5223973441 183
-75.4272834088 -41.8655576527 180
-76.6637962515 -42.55187827 177
-76.6637962515 -42.55187827 174
-76.6637962515 -42.55187827 171
-76.6637962515 -42.55187827 168
93.6929826615 54.0936687608 306
-32.4557390919 -18.7383297014 303
-42.253698063 -24.3951839509 300
-51.4392845984 -29.6984848098 297
-63.0743608767 -36.4159992311 294
-61.8496160053 -35.7088924499 291
-63.0743608767 -36.4159992311 288
-63.0743608767 -36.4159992311 285
-63.0743608767 -36.4159992311 282
-63.0743608767 -36.4159992311 279
-63.0743608767 -36.4159992311 276
-63.0743608767 -36.4159992311 273
-63.6867333124 -36.7695526217 270
-63.6867333124 -36.7695526217 267
-63.6867333124 -36.7695526217 264
-60.6248711339 -35.0017856687 261
-60.6248711339 -35.0017856687 258
-60.0124986982 -34.6482322781 255
-67.3609679265 -38.8908729653 252
-67.9733403622 -39.2444263559 249
-67.9733403622 -39.2444263559 246
-67.9733403622 -39.2444263559 243
-67.9733403622 -39.2444263559 240
-67.9733403622 -39.2444263559 237
-67.9733403622 -39.2444263559 234
-67.9733403622 -39.2444263559 231
-67.9733403622 -39.2444263559 228
-67.9733403622 -39.2444263559 225
-68.5857127979 -39.5979797464 222
-68.5857127979 -39.5979797464 219
-69.1980852336 -39.951533137 216
-69.8104576693 -40.3050865276 213
-70.422830105 -40.6586399182 210
-70.422830105 -40.6586399182 207
-71.0352025407 -41.0121933088 204
-71.6475749764 -41.3657466994 201
-72.2599474121 -41.71930009 198
-72.8723198478 -42.0728534806 195
-72.8723198478 -42.0728534806 192
-73.4846922835 -42.4264068712 189
-73.4846922835 -42.4264068712 186
-74.0970647192 -42.7799602618 183
-74.7094371549 -43.1335136524 180
-75.9341820263 -43.8406204336 177
-75.9341820263 -43.8406204336 174
-75.9341820263 -43.8406204336 171
-75.9341820263 -43.8406204336 168
92.7660045968 55.6683787364 306
-32.1346290433 -19.2838174708 303
-43.048276643 -25.8330384986 300
-52.7492967315 -31.6545683011 297
-62.4503168201 -37.4760981036 294
-61.8440030645 -37.112252491 291
-61.237689309 -36.7484068783 288
-61.8440030645 -37.112252491 285
-61.8440030645 -37.112252491 282
-61.8440030645 -37.112252491 279
-62.4503168201 -37.4760981036 276
-63.6629443312 -38.2037893289 273
-63.6629443312 -38.2037893289 270
-63.6629443312 -38.2037893289 267
-61.237689309 -36.7484068783 264
-59.4187480424 -35.6568700403 261
-58.2061205313 -34.929178815 258
-60.0250617979 -36.020715653 255
-66.6945131088 -40.0230173922 252
-66.6945131088 -40.0230173922 249
-67.3008268644 -40.3868630049 246
-67.3008268644 -40.3868630049 243
-67.3008268644 -40.3868630049 240
-67.3008268644 -40.3868630049 237
-67.3008268644 -40.3868630049 234
-67.3008268644 -40.3868630049 231
-67.3008268644 -40.3868630049 228
-67.9071406199 -40.7507086175 225
-67.9071406199 -40.7507086175 222
-67.9071406199 -40.7507086175 219
-69.119768131 -41.4783998428 216
-69.119768131 -41.4783998428 213
-69.119768131 -41.4783998428 210
-70.332395642 -42.2060910681 207
-70.332395642 -42.2060910681 204
-71.5450231531 -42.9337822935 201
-71.5450231531 -42.9337822935 198
-72.1513369086 -43.2976279061 195
-72.7576506642 -43.6614735188 192
-72.7576506642 -43.6614735188 189
-72.7576506642 -43.6614735188 186
-73.3639644197 -44.0253191314 183
-74.5765919308 -44.7530103567 180
-74.5765919308 -44.7530103567 177
-75.1829056863 -45.1168559694 174
-75.1829056863 -45.1168559694 171
-75.1829056863 -45.1168559694 168
91.8125627213 57.227207922 306
-32.4044339016 -20.1978380901 303
-43.2059118688 -26.9304507868 300
-58.8080467104 -36.6553357932 297
-61.8084572568 -38.5255059867 294
-60.6082930382 -37.7774379093 291
-61.8084572568 -38.5255059867 288
-61.8084572568 -38.5255059867 285
-62.4085393661 -38.8995400254 282
-61.8084572568 -38.5255059867 279
-61.8084572568 -38.5255059867 276
-62.4085393661 -38.8995400254 273
-63.0086214754 -39.2735740641 270
-63.0086214754 -39.2735740641 267
-61.2083751475 -38.151471948 264
-58.2079646011 -36.2813017545 261
-58.8080467104 -36.6553357932 258
-59.4081288197 -37.0293698319 255
-66.0090320219 -41.1437442576 252
-66.0090320219 -41.1437442576 249
-66.6091141311 -41.5177782963 246
-66.6091141311 -41.5177782963 243
-66.6091141311 -41.5177782963 240
-66.6091141311 -41.5177782963 237
-66.6091141311 -41.5177782963 234
-66.6091141311 -41.5177782963 231
-67.2091962404 -41.8918123351 228
-67.2091962404 -41.8918123351 225
-67.2091962404 -41.8918123351 222
-67.8092783497 -42.2658463738 219
-68.409360459 -42.6398804125 216
-68.409360459 -42.6398804125 213
-69.0094425683 -43.0139144512 210
-69.6095246776 -43.3879484899 207
-70.2096067869 -43.7619825286 204
-70.2096067869 -43.7619825286 201
-70.8096888962 -44.1360165673 198
-70.8096888962 -44.1360165673 195
-72.0098531147 -44.8840846447 192
-72.0098531147 -44.8840846447 189
-72.609935224 -45.2581186834 186
-73.2100173333 -45.6321527221 183
-73.2100173333 -45.6321527221 180
-74.4101815519 -46.3802207995 177
-74.4101815519 -46.3802207995 174
-74.4101815519 -46.3802207995 171
-74.4101815519 -46.3802207995 168
90.8329290279 58.7697116226 306
-32.6523601081 -21.1263669232 303
-43.9322663272 -28.4245664057 300
-58.7742481945 -38.0274604617 297
-61.1489652933 -39.5639235107 294
-60.5552860186 -39.1798077484 291
-61.1489652933 -39.5639235107 288
-60.5552860186 -39.1798077484 285
-61.1489652933 -39.5639235107 282
-61.742644568 -39.9480392729 279
-61.742644568 -39.9480392729 276
-62.3363238427 -40.3321550352 273
-61.742644568 -39.9480392729 270
-62.9300031174 -40.7162707974 267
-60.5552860186 -39.1798077484 264
-58.7742481945 -38.0274604617 261
-56.9932103705 -36.875113175 258
-56.9932103705 -36.875113175 255
-64.7110409415 -41.8686180841 252
-65.3047202162 -42.2527338463 249
-65.8983994908 -42.6368496086 246
-66.4920787655 -43.0209653708 243
-65.8983994908 -42.6368496086 240
-65.8983994908 -42.6368496086 237
-65.8983994908 -42.6368496086 234
-65.8983994908 -42.6368496086 231
-66.4920787655 -43.0209653708 228
-66.4920787655 -43.0209653708 225
-67.0857580402 -43.4050811331 222
-67.0857580402 -43.4050811331 219
-67.6794373149 -43.7891968953 216
-68.2731165896 -44.1733126575 213
-67.6794373149 -43.7891968953 210
-68.8667958643 -44.5574284198 207
-69.460475139 -44.941544182 204
-69.460475139 -44.941544182 201
-70.6478336884 -45.7097757065 198
-70.6478336884 -45.7097757065 195
-71.2415129631 -46.0938914687 192
-71.8351922378 -46.478007231 189
-72.4288715125 -46.8621229932 186
-71.8351922378 -46.478007231 183
-73.0225507871 -47.2462387555 180
-72.4288715125 -46.8621229932 177
-73.6162300618 -47.6303545177 174
-73.6162300618 -47.6303545177 171
-74.2099093365 -48.0144702799 168
89.8273829816 60.2954498008 306
-31.7037822288 -21.2807469885 303
-42.8588167167 -28.7684172252 300
-58.7107078311 -39.4087907195 297
-60.472029066 -40.5910544411 294
-59.8849219877 -40.1969665339 291
-60.472029066 -40.5910544411 288
-60.472029066 -40.5910544411 285
-61.6462432226 -41.3792302555 282
-61.6462432226 -41.3792302555 279
-62.2333503009 -41.7733181627 276
-62.2333503009 -41.7733181627 273
-61.6462432226 -41.3792302555 270
-61.6462432226 -41.3792302555 267
-59.2978149094 -39.8028786267 264
-58.1236007528 -39.0147028123 261
-42.8588167167 -28.7684172252 258
-56.9493865961 -38.2265269979 255
-64.5817786142 -43.3496697915 252
-64.5817786142 -43.3496697915 249
-65.1688856925 -43.7437576986 246
-65.1688856925 -43.7437576986 243
-65.1688856925 -43.7437576986 240
-65.1688856925 -43.7437576986 237
-65.1688856925 -43.7437576986 234
-65.7559927708 -44.1378456058 231
-65.7559927708 -44.1378456058 228
-65.7559927708 -44.1378456058 225
-66.9302069274 -44.9260214202 222
-66.9302069274 -44.9260214202 219
-66.9302069274 -44.9260214202 216
-66.9302069274 -44.9260214202 213
-68.1044210841 -45.7141972346 210
-68.6915281624 -46.1082851418 207
-68.6915281624 -46.1082851418 204
-68.6915281624 -46.1082851418 201
-69.865742319 -46.8964609562 198
-70.4528493973 -47.2905488634 195
-70.4528493973 -47.2905488634 192
-71.0399564756 -47.6846367706 189
-71.6270635539 -48.0787246778 186
-71.0399564756 -47.6846367706 183
-71.0399564756 -47.6846367706 180
-72.8012777105 -48.8669004922 177
-73.3883847888 -49.2609883994 174
-73.3883847888 -49.2609883994 171
-73.3883847888 -49.2609883994 168
88.7962114392 61.8039872018 306
-31.9202067265 -22.2171195823 303
-43.5275546271 -30.2960721577 300
-58.0367395028 -40.394762877 297
-59.1974742928 -41.2026581345 294
-59.1974742928 -41.2026581345 291
-59.7778416879 -41.6066057633 288
-60.3582090829 -42.0105533921 285
-60.3582090829 -42.0105533921 282
-60.3582090829 -42.0105533921 279
-60.9385764779 -42.4145010208 276
-61.5189438729 -42.8184486496 273
-60.9385764779 -42.4145010208 270
-60.9385764779 -42.4145010208 267
-58.0367395028 -40.394762877 264
-57.4563721077 -39.9908152482 261
-56.2956373177 -39.1829199907 258
-49.3312285774 -34.3355484454 255
-60.9385764779 -42.4145010208 252
-63.260046058 -44.0302915359 249
-63.840413453 -44.4342391647 246
-63.840413453 -44.4342391647 243
-64.4207808481 -44.8381867935 240
-65.0011482431 -45.2421344222 237
-65.0011482431 -45.2421344222 234
-65.5815156381 -45.646082051 231
-65.0011482431 -45.2421344222 228
-66.1618830332 -46.0500296798 225
-66.1618830332 -46.0500296798 222
-66.7422504282 -46.4539773085 219
-66.7422504282 -46.4539773085 216
-66.7422504282 -46.4539773085 213
-66.7422504282 -46.4539773085 210
-66.1618830332 -46.0500296798 207
-67.9029852182 -47.2618725661 204
-68.4833526133 -47.6658201948 201
-69.0637200083 -48.0697678236 198
-70.2244547983 -48.8776630812 195
-70.2244547983 -48.8776630812 192
-70.8048221934 -49.2816107099 189
-71.3851895884 -49.6855583387 186
-71.3851895884 -49.6855583387 183
-71.3851895884 -49.6855583387 180
-70.8048221934 -49.2816107099 177
-71.9655569834 -50.0895059675 174
-72.5459243785 -50.4934535962 171
-73.1262917735 -50.897401225 168
87.7397085683 63.2948934777 306
-33.2608045553 -23.9941426255 303
-44.1565853579 -31.854292796 300
-57.919676898 -41.7829035375 297
-58.4931390455 -42.1965956518 294
-59.066601193 -42.610287766 291
-59.6400633405 -43.0239798802 288
-59.6400633405 -43.0239798802 285
-59.6400633405 -43.0239798802 282
-60.7869876356 -43.8513641087 279
-61.3604497831 -44.2650562229 276
-60.7869876356 -43.8513641087 273
-60.7869876356 -43.8513641087 270
-59.6400633405 -43.0239798802 267
-57.919676898 -41.7829035375 264
-55.625828308 -40.1281350806 261
-54.478904013 -39.3007508521 258
-46.4504339479 -33.5090612529 255
-62.5073740781 -45.0924404514 252
-63.0808362256 -45.5061325656 249
-63.0808362256 -45.5061325656 246
-63.6542983731 -45.9198246799 243
-63.6542983731 -45.9198246799 240
-64.2277605206 -46.3335167941 237
-64.2277605206 -46.3335167941 234
-64.8012226681 -46.7472089083 231
-64.2277605206 -46.3335167941 228
-64.2277605206 -46.3335167941 225
-64.8012226681 -46.7472089083 222
-65.3746848156 -47.1609010226 219
-65.9481469631 -47.5745931368 216
-65.9481469631 -47.5745931368 213
-67.0950712581 -48.4019773653 210
-66.5216091106 -47.988285251 207
-67.6685334056 -48.8156694795 204
-66.5216091106 -47.988285251 201
-68.2419955531 -49.2293615937 198
-68.8154577006 -49.643053708 195
-69.3889198481 -50.0567458222 192
-69.9623819956 -50.4704379364 189
-69.9623819956 -50.4704379364 186
-70.5358441431 -50.8841300507 183
-70.5358441431 -50.8841300507 180
-70.5358441431 -50.8841300507 177
-71.1093062906 -51.2978221649 174
-71.6827684382 -51.7115142791 171
-72.2562305857 -52.1252063934 168
86.6581757625 64.7677433104 306
-32.850811727 -24.5524778562 303
-42.4794979228 -31.7488937796 300
-57.772117175 -43.1784955402 297
-58.3385104806 -43.601814124 294
-57.772117175 -43.1784955402 291
-58.9049037863 -44.0251327077 288
-57.772117175 -43.1784955402 285
-58.9049037863 -44.0251327077 282
-58.9049037863 -44.0251327077 279
-59.4712970919 -44.4484512914 276
-58.9049037863 -44.0251327077 273
-59.4712970919 -44.4484512914 270
-60.0376903975 -44.8717698752 267
-57.2057238694 -42.7551769565 264
-54.3737573412 -40.6385840379 261
-54.3737573412 -40.6385840379 258
-44.7450711453 -33.4421681145 255
-61.7368703144 -46.1417256263 252
-62.3032636201 -46.5650442101 249
-62.3032636201 -46.5650442101 246
-62.3032636201 -46.5650442101 243
-62.8696569257 -46.9883627938 240
-63.4360502314 -47.4116813775 237
-63.4360502314 -47.4116813775 234
-63.4360502314 -47.4116813775 231
-63.4360502314 -47.4116813775 228
-64.5688368426 -48.258318545 225
-65.1352301483 -48.6816371287 222
-64.5688368426 -48.258318545 219
-65.7016234539 -49.1049557124 216
-65.7016234539 -49.1049557124 213
-65.7016234539 -49.1049557124 210
-66.2680167595 -49.5282742962 207
-66.8344100652 -49.9515928799 204
-66.8344100652 -49.9515928799 201
-68.5335899821 -51.2215486311 198
-68.5335899821 -51.2215486311 195
-68.5335899821 -51.2215486311 192
-69.0999832877 -51.6448672148 189
-69.0999832877 -51.6448672148 186
-69.6663765934 -52.0681857985 183
-69.6663765934 -52.0681857985 180
-69.6663765934 -52.0681857985 177
-70.232769899 -52.4915043823 174
-70.7991632046 -52.914822966 171
-71.3655565103 -53.3381415497 168
85.5519215559 66.2221165328 306
-33.5497731592 -25.9694574639 303
-44.1738679929 -34.1931189941 300
-57.0346143706 -44.1480776886 297
-57.0346143706 -44.1480776886 294
-58.1529401426 -45.0137262707 291
-57.5937772566 -44.5809019796 288
-58.1529401426 -45.0137262707 285
