-40.2131350949 -2.72098618859 130
-119.933911687 -8.11522196596 127
-122.755886079 -8.30616836515 124
-124.166873276 -8.40164156475 121
-125.577860472 -8.49711476435 118
-126.988847668 -8.59258796395 115
-128.399834864 -8.68806116355 112
-129.105328463 -8.73579776335 109
-129.810822061 -8.78353436315 106
-130.516315659 -8.83127096295 103
-130.516315659 -8.83127096295 100
-131.221809257 -8.87900756275 97
-133.338290052 -9.02221736215 94
-134.04378365 -9.06995396195 91
-136.865758042 -9.26090036115 88
-138.276745239 -9.35637356075 85
-138.982238837 -9.40411016055 82
-139.687732435 -9.45184676035 79
-139.687732435 -9.45184676035 76
-138.276745239 -9.35637356075 73
-138.276745239 -9.35637356075 70
-131.927302855 -8.92674416255 67
111.324702077 9.4239433063 370
110.620115355 9.3642980955 367
110.620115355 9.3642980955 364
110.620115355 9.3642980955 361
109.210941911 9.2450076739 358
108.506355189 9.1853624631 355
108.506355189 9.1853624631 352
107.801768467 9.1257172523 349
107.801768467 9.1257172523 346
107.801768467 9.1257172523 343
107.801768467 9.1257172523 340
107.097181745 9.0660720415 337
106.392595023 9.0064268307 334
104.983421579 8.8871364091 331
104.983421579 8.8871364091 328
104.983421579 8.8871364091 325
104.278834857 8.8274911983 322
103.574248135 8.7678459875 319
102.869661413 8.70820077671 316
102.165074691 8.64855556591 313
102.165074691 8.64855556591 310
102.165074691 8.64855556591 307
-27.4788821583 -2.32616322117 304
-33.1155759343 -2.80332490757 301
-40.1614431544 -3.39977701556 298
-45.0935502085 -3.81729349116 295
-50.7302439845 -4.29445517755 292
-61.2990448146 -5.18913333954 289
-76.7999526988 -6.50132797713 286
-76.7999526988 -6.50132797713 283
-77.5045394208 -6.56097318793 280
-78.2091261428 -6.62061839873 277
-78.9137128648 -6.68026360953 274
-78.9137128648 -6.68026360953 271
-78.9137128648 -6.68026360953 268
-80.3228863088 -6.79955403113 265
-79.6182995868 -6.73990882033 262
-80.3228863088 -6.79955403113 259
-80.3228863088 -6.79955403113 256
-81.0274730308 -6.85919924193 253
-82.4366464748 -6.97848966352 250
-80.3228863088 -6.79955403113 247
-80.3228863088 -6.79955403113 244
-84.5504066409 -7.15742529592 241
-85.2549933629 -7.21707050672 217
-85.2549933629 -7.21707050672 214
-85.2549933629 -7.21707050672 211
-85.9595800849 -7.27671571752 202
-85.9595800849 -7.27671571752 199
-87.3687535289 -7.39600613912 190
-88.0733402509 -7.45565134992 187
-88.0733402509 -7.45565134992 184
-89.4825136949 -7.57494177152 181
-89.4825136949 -7.57494177152 178
-24.6605352702 -2.08758237798 142
-34.5247493783 -2.92261532917 139
-31.7064024903 -2.68403448597 136
-35.9339228224 -3.04190575077 133
-27.4788821583 -2.32616322117 130
-119.779742741 -10.1396858359 127
-122.598089629 -10.3782666791 124
-124.007263073 -10.4975571007 121
-125.416436517 -10.6168475223 118
-127.530196683 -10.7957831547 115
-128.939370127 -10.9150735763 112
-128.939370127 -10.9150735763 109
-129.643956849 -10.9747187871 106
-130.348543571 -11.0343639979 103
-130.348543571 -11.0343639979 100
-131.757717015 -11.1536544195 97
-132.462303737 -11.2132996303 94
-133.166890459 -11.2729448411 91
-135.985237347 -11.5115256843 88
-138.098997513 -11.6904613167 85
-139.508170957 -11.8097517383 82
-139.508170957 -11.8097517383 79
-139.508170957 -11.8097517383 76
-138.803584235 -11.7501065275 73
-138.098997513 -11.6904613167 70
-135.280650625 -11.4518804735 67
111.853136349 11.3743522365 370
110.446178659 11.2312786234 367
110.446178659 11.2312786234 364
110.446178659 11.2312786234 361
109.03922097 11.0882050104 358
109.03922097 11.0882050104 355
108.335742125 11.0166682039 352
107.63226328 10.9451313973 349
107.63226328 10.9451313973 346
107.63226328 10.9451313973 343
107.63226328 10.9451313973 340
106.928784435 10.8735945908 337
106.22530559 10.8020577843 334
105.521826745 10.7305209778 331
104.8183479 10.6589841713 328
104.8183479 10.6589841713 325
104.114869055 10.5874473647 322
103.41139021 10.5159105582 319
102.707911365 10.4443737517 316
102.00443252 10.3728369452 313
102.00443252 10.3728369452 310
102.00443252 10.3728369452 307
-28.1391537986 -2.86147226074 304
-33.0635057133 -3.36222990637 301
-40.098294163 -4.07759797156 298
-45.0226460778 -4.57835561719 295
-50.6504768375 -5.15065006934 292
-67.5339691166 -6.86753342578 289
-76.6791941012 -7.79751191052 286
-76.6791941012 -7.79751191052 283
-77.3826729461 -7.86904871704 280
-77.3826729461 -7.86904871704 277
-78.0861517911 -7.94058552356 274
-78.7896306361 -8.01212233008 271
-78.7896306361 -8.01212233008 268
-78.7896306361 -8.01212233008 265
-78.7896306361 -8.01212233008 262
-79.493109481 -8.0836591366 259
-80.196588326 -8.15519594312 256
-80.196588326 -8.15519594312 253
-79.493109481 -8.0836591366 250
-80.196588326 -8.15519594312 247
-82.3070248609 -8.36980636267 244
-83.7139825508 -8.51287997571 241
-83.7139825508 -8.51287997571 238
-83.7139825508 -8.51287997571 235
-83.7139825508 -8.51287997571 232
-83.7139825508 -8.51287997571 229
-83.7139825508 -8.51287997571 226
-83.7139825508 -8.51287997571 223
-85.1209402408 -8.65595358875 211
-85.1209402408 -8.65595358875 208
-85.1209402408 -8.65595358875 205
-85.8244190857 -8.72749039527 202
-85.8244190857 -8.72749039527 199
-85.8244190857 -8.72749039527 196
-87.2313767756 -8.8705640083 190
-87.9348556206 -8.94210081482 187
-87.9348556206 -8.94210081482 184
-89.3418133105 -9.08517442786 181
-89.3418133105 -9.08517442786 178
-90.7487710005 -9.2282480409 169
-90.7487710005 -9.2282480409 163
-24.6217595738 -2.50378822815 142
-33.7669845583 -3.43376671289 139
-29.5461114885 -3.00454587378 136
-15.4765345892 -1.57380974341 133
-26.7321961087 -2.71839864771 130
-119.591403644 -12.1612571082 127
-122.405319024 -12.4474043342 124
-123.108797869 -12.5189411408 121
-125.219234404 -12.7335515603 118
-128.033149784 -13.0196987864 115
-128.736628629 -13.0912355929 112
-128.736628629 -13.0912355929 109
-129.440107474 -13.1627723994 106
-130.143586319 -13.2343092059 103
-130.143586319 -13.2343092059 100
-130.847065163 -13.3058460125 97
-132.254022853 -13.4489196255 94
-132.957501698 -13.520456432 91
-135.067938233 -13.7350668516 88
-139.288811303 -14.1642876907 85
-139.288811303 -14.1642876907 82
-139.288811303 -14.1642876907 79
-139.288811303 -14.1642876907 76
-137.881853613 -14.0212140776 73
-137.881853613 -14.0212140776 70
-135.067938233 -13.7350668516 67
111.64507501 13.2618711388 370
110.240734443 13.0950551497 367
110.240734443 13.0950551497 364
110.240734443 13.0950551497 361
108.836393877 12.9282391605 358
108.134223594 12.8448311659 355
107.432053311 12.7614231713 352
107.432053311 12.7614231713 349
107.432053311 12.7614231713 346
107.432053311 12.7614231713 343
107.432053311 12.7614231713 340
106.729883028 12.6780151767 337
106.027712745 12.5946071822 334
105.325542462 12.5111991876 331
104.623372179 12.427791193 328
104.623372179 12.427791193 325
104.623372179 12.427791193 322
103.219031613 12.2609752038 319
103.219031613 12.2609752038 316
101.814691046 12.0941592147 313
101.814691046 12.0941592147 310
101.814691046 12.0941592147 307
-28.0868113232 -3.33631978335 304
-33.7041735878 -4.00358374003 301
-40.7258764186 -4.83766368586 298
-45.6410684001 -5.42151964795 295
-51.2584306648 -6.08878360462 292
-66.0040066094 -7.84035149088 289
-75.8343905726 -9.00806341506 286
-76.5365608556 -9.09147140964 283
-76.5365608556 -9.09147140964 280
-77.2387311387 -9.17487940423 277
-77.9409014218 -9.25828739881 274
-78.6430717049 -9.34169539339 271
-79.3452419879 -9.42510338798 268
-78.6430717049 -9.34169539339 265
-78.6430717049 -9.34169539339 262
-79.3452419879 -9.42510338798 259
-79.3452419879 -9.42510338798 256
-79.3452419879 -9.42510338798 253
-79.3452419879 -9.42510338798 250
-78.6430717049 -9.34169539339 247
-82.1539231203 -9.75873536631 244
-82.8560934033 -9.8421433609 241
-83.5582636864 -9.92555135548 238
-82.8560934033 -9.8421433609 235
-83.5582636864 -9.92555135548 232
-83.5582636864 -9.92555135548 229
-83.5582636864 -9.92555135548 226
-83.5582636864 -9.92555135548 223
-83.5582636864 -9.92555135548 220
-84.2604339695 -10.0089593501 217
-84.9626042526 -10.0923673446 211
-84.9626042526 -10.0923673446 208
-84.9626042526 -10.0923673446 205
-84.9626042526 -10.0923673446 202
-84.9626042526 -10.0923673446 199
-85.6647745357 -10.1757753392 196
-86.3669448187 -10.2591833338 193
-87.0691151018 -10.3425913284 190
-87.7712853849 -10.425999323 187
-87.7712853849 -10.425999323 184
-87.7712853849 -10.425999323 181
-89.1756259511 -10.5928153122 178
-89.8777962341 -10.6762233067 175
-89.8777962341 -10.6762233067 172
-90.5799665172 -10.7596313013 169
-90.5799665172 -10.7596313013 166
-90.5799665172 -10.7596313013 163
-24.5759599078 -2.91927981044 142
-33.7041735878 -4.00358374003 139
-31.5976627386 -3.75335975627 136
-41.4280467017 -4.92107168045 133
-35.810684437 -4.25380772378 130
-119.368948123 -14.1793590793 127
-122.177629256 -14.5129910576 124
-123.581969822 -14.6798070468 121
-125.688480671 -14.9300310305 118
-127.092821237 -15.0968470197 115
-128.497161803 -15.2636630088 112
-129.199332087 -15.3470710034 109
-129.90150237 -15.430478998 106
-129.90150237 -15.430478998 103
-130.603672653 -15.5138869926 100
-130.603672653 -15.5138869926 97
-132.008013219 -15.6807029818 94
-133.412353785 -15.8475189709 91
-134.816694351 -16.0143349601 88
-138.327545767 -16.431374933 85
-139.02971605 -16.5147829276 82
-139.02971605 -16.5147829276 79
-139.02971605 -16.5147829276 76
-139.02971605 -16.5147829276 73
-137.625375484 -16.3479669384 70
-132.008013219 -15.6807029818 67
111.405164134 15.1456067625 370
110.003841315 14.9550959856 367
110.003841315 14.9550959856 364
110.003841315 14.9550959856 361
108.602518496 14.7645852087 358
107.901857086 14.6693298203 355
107.201195676 14.5740744318 352
107.201195676 14.5740744318 349
107.201195676 14.5740744318 346
107.201195676 14.5740744318 343
107.201195676 14.5740744318 340
106.500534267 14.4788190434 337
105.799872857 14.383563655 334
105.099211447 14.2883082665 331
104.398550038 14.1930528781 328
104.398550038 14.1930528781 325
103.697888628 14.0977974896 322
102.997227219 14.0025421012 319
102.296565809 13.9072867127 316
102.296565809 13.9072867127 313
101.595904399 13.8120313243 310
101.595904399 13.8120313243 307
-28.7271177956 -3.90547092618 304
-33.6317476632 -4.57225864529 301
-41.3390231693 -5.62006791816 298
-46.9443144465 -6.38211102571 295
-54.6515899527 -7.42992029859 292
-72.8687866036 -9.90656039812 289
-74.9707708325 -10.1923265635 286
-75.6714322422 -10.2875819519 283
-75.6714322422 -10.2875819519 280
-76.3720936518 -10.3828373403 277
-77.0727550615 -10.4780927288 274
-77.0727550615 -10.4780927288 271
-77.7734164711 -10.5733481172 268
-77.7734164711 -10.5733481172 265
-77.7734164711 -10.5733481172 262
-78.4740778808 -10.6686035057 259
-77.7734164711 -10.5733481172 256
-78.4740778808 -10.6686035057 253
-77.7734164711 -10.5733481172 250
-77.7734164711 -10.5733481172 247
-81.977384929 -11.1448804479 244
-82.6780463387 -11.2401358363 241
-81.977384929 -11.1448804479 238
-81.977384929 -11.1448804479 235
-81.977384929 -11.1448804479 232
-81.977384929 -11.1448804479 229
-81.977384929 -11.1448804479 226
-81.977384929 -11.1448804479 223
-81.977384929 -11.1448804479 220
-81.977384929 -11.1448804479 217
-82.6780463387 -11.2401358363 214
-83.3787077483 -11.3353912248 211
-83.3787077483 -11.3353912248 208
-83.3787077483 -11.3353912248 205
-84.079369158 -11.4306466132 202
-84.7800305676 -11.5259020017 199
-84.7800305676 -11.5259020017 196
-85.4806919773 -11.6211573901 193
-84.7800305676 -11.5259020017 190
-86.1813533869 -11.7164127785 187
-86.1813533869 -11.7164127785 184
-86.8820147966 -11.811668167 181
-87.5826762062 -11.9069235554 178
-88.9839990255 -12.0974343323 172
-88.9839990255 -12.0974343323 169
-88.9839990255 -12.0974343323 163
-24.5231493377 -3.33393859552 142
-32.9310862535 -4.47700325684 139
-29.4277792053 -4.00072631463 136
-35.7337318921 -4.85802481062 133
-25.924472157 -3.52444937241 130
-121.915085279 -16.5744375892 127
-124.717730918 -16.9554591429 124
-125.418392327 -17.0507145314 121
-126.119053737 -17.1459699198 118
-126.819715147 -17.2412253083 115
-129.622360785 -17.622246862 112
-130.323022195 -17.7175022505 109
-131.724345014 -17.9080130274 106
-132.425006424 -18.0032684158 103
-133.125667833 -18.0985238043 100
-133.125667833 -18.0985238043 97
-133.826329243 -18.1937791927 94
-134.526990653 -18.2890345811 91
-136.628974882 -18.5748007465 88
-138.030297701 -18.7653115234 85
-138.730959111 -18.8605669118 82
-138.730959111 -18.8605669118 79
-138.030297701 -18.7653115234 76
-137.329636291 -18.6700561349 73
-136.628974882 -18.5748007465 70
-137.329636291 -18.6700561349 67
110.434519509 16.9179461167 370
109.735566854 16.8108705084 367
109.735566854 16.8108705084 364
109.735566854 16.8108705084 361
108.337661544 16.5967192917 358
108.337661544 16.5967192917 355
107.638708889 16.4896436834 352
106.939756233 16.382568075 349
106.939756233 16.382568075 346
106.939756233 16.382568075 343
106.240803578 16.2754924667 340
106.240803578 16.2754924667 337
105.541850923 16.1684168584 334
104.842898268 16.06134125 331
104.143945613 15.9542656417 328
104.143945613 15.9542656417 325
103.444992958 15.8471900334 322
102.746040303 15.740114425 319
102.047087648 15.6330388167 316
101.348134992 15.5259632084 313
101.348134992 15.5259632084 310
101.348134992 15.5259632084 307
-28.6570588599 -4.39009994167 304
-33.5497274458 -5.13962920001 301
-40.539253997 -6.21038528334 298
-46.8298278931 -7.17406575834 295
-55.2172597545 -8.45897305835 292
-73.3900287877 -11.242938875 289
-74.7879340979 -11.4570900917 286
-74.0889814428 -11.3500144834 283
-74.7879340979 -11.4570900917 280
-76.8847920633 -11.7783169167 277
-76.8847920633 -11.7783169167 274
-76.8847920633 -11.7783169167 271
-76.8847920633 -11.7783169167 268
-77.5837447184 -11.885392525 265
-77.5837447184 -11.885392525 262
-78.2826973735 -11.9924681334 259
-78.2826973735 -11.9924681334 256
-76.1858394081 -11.6712413084 253
-77.5837447184 -11.885392525 250
-77.5837447184 -11.885392525 247
-81.078507994 -12.4207705667 244
-81.7774606491 -12.527846175 241
-81.7774606491 -12.527846175 238
-81.7774606491 -12.527846175 235
-81.7774606491 -12.527846175 232
-81.7774606491 -12.527846175 229
-81.7774606491 -12.527846175 226
-81.7774606491 -12.527846175 223
-81.7774606491 -12.527846175 220
-81.7774606491 -12.527846175 217
-81.7774606491 -12.527846175 214
-82.4764133042 -12.6349217834 211
-83.1753659593 -12.7419973917 208
-82.4764133042 -12.6349217834 205
-83.1753659593 -12.7419973917 202
-84.5732712696 -12.9561486084 199
-83.8743186145 -12.849073 196
-84.5732712696 -12.9561486084 193
-85.2722239247 -13.0632242167 190
-85.9711765798 -13.170299825 187
-86.6701292349 -13.2773754334 184
-86.6701292349 -13.2773754334 181
-87.3690818901 -13.3844510417 178
-88.7669872003 -13.5986022584 169
-88.7669872003 -13.5986022584 166
-24.4633429292 -3.74764629167 142
-32.1518221355 -4.92547798334 139
-30.0549641702 -4.60425115834 136
-34.947632756 -5.35378041667 133
-26.5602008946 -4.06887311667 130
-123.015667301 -18.8453070667 127
-126.510430577 -19.3806851084 124
-126.510430577 -19.3806851084 121
-127.209383232 -19.4877607167 118
-127.908335887 -19.594836325 115
-130.704146508 -20.0231387584 112
-133.499957128 -20.4514411917 109
-134.198909783 -20.5585168 106
-134.897862438 -20.6655924084 103
-136.295767748 -20.879743625 100
-136.994720404 -20.9868192334 97
-136.994720404 -20.9868192334 94
-136.994720404 -20.9868192334 91
-137.693673059 -21.0938948417 88
-138.392625714 -21.20097045 85
-137.693673059 -21.0938948417 82
110.133032099 18.7807145943 370
109.435987592 18.661849312 367
109.435987592 18.661849312 364
108.738943085 18.5429840298 361
108.041898578 18.4241187475 358
108.041898578 18.4241187475 355
107.344854071 18.3052534653 352
106.647809564 18.186388183 349
106.647809564 18.186388183 346
106.647809564 18.186388183 343
106.647809564 18.186388183 340
105.950765057 18.0675229008 337
105.25372055 17.9486576186 334
105.25372055 17.9486576186 331
103.859631536 17.7109270541 328
103.859631536 17.7109270541 325
103.162587029 17.5920617718 322
102.465542523 17.4731964896 319
101.768498016 17.3543312074 316
101.071453509 17.2354659251 313
101.071453509 17.2354659251 310
101.071453509 17.2354659251 307
-28.5788247852 -4.87347657193 304
-34.8522253478 -5.94326411211 301
-41.8226704174 -7.13191693453 298
-46.7019819661 -7.96397391022 295
-57.1576495704 -9.74695314386 292
-72.4926287234 -12.3619893532 289
-73.8867177373 -12.5997199177 286
-73.8867177373 -12.5997199177 283
-74.5837622443 -12.7185851999 280
-75.2808067512 -12.8374504822 277
-76.6748957652 -13.0751810466 274
-77.3719402721 -13.1940463289 271
-77.3719402721 -13.1940463289 268
-77.3719402721 -13.1940463289 265
-78.766029286 -13.4317768934 262
-78.0689847791 -13.3129116111 259
-77.3719402721 -13.1940463289 256
-76.6748957652 -13.0751810466 253
-75.9778512582 -12.9563157644 250
-75.9778512582 -12.9563157644 247
-80.8571628069 -13.7883727401 244
-81.5542073138 -13.9072380223 241
-81.5542073138 -13.9072380223 238
-80.8571628069 -13.7883727401 235
-80.8571628069 -13.7883727401 232
-81.5542073138 -13.9072380223 229
-81.5542073138 -13.9072380223 226
-80.8571628069 -13.7883727401 223
-81.5542073138 -13.9072380223 220
-81.5542073138 -13.9072380223 217
-81.5542073138 -13.9072380223 214
-81.5542073138 -13.9072380223 211
-82.2512518208 -14.0261033046 208
-82.9482963278 -14.1449685868 205
-82.9482963278 -14.1449685868 202
-82.9482963278 -14.1449685868 199
-84.3423853417 -14.3826991513 196
-84.3423853417 -14.3826991513 193
-85.0394298486 -14.5015644335 190
-85.7364743556 -14.6204297158 187
-86.4335188625 -14.739294998 184
-86.4335188625 -14.739294998 181
-87.1305633695 -14.8581602803 178
-87.1305633695 -14.8581602803 175
-24.3965577435 -4.16028487848 142
-31.367002813 -5.3489377009 139
-29.9729137991 -5.11120713641 136
-41.8226704174 -7.13191693453 133
-25.7906467574 -4.39801544296 130
-123.376877731 -21.0391549569 127
-126.165055759 -21.5146160858 124
-126.862100266 -21.6334813681 121
-126.862100266 -21.6334813681 118
-126.862100266 -21.6334813681 115
-129.650278294 -22.108942497 112
-131.741411815 -22.4655383438 109
-133.832545336 -22.8221341905 106
-135.226634349 -23.059864755 103
-135.923678856 -23.1787300372 100
-136.620723363 -23.2975953195 97
-137.31776787 -23.4164606017 94
-138.014812377 -23.5353258839 91
-138.014812377 -23.5353258839 88
110.495064011 20.7687464526 370
109.105188992 20.5075043588 367
109.105188992 20.5075043588 364
109.105188992 20.5075043588 361
107.715313973 20.2462622651 358
107.020376463 20.1156412182 355
107.020376463 20.1156412182 352
106.325438954 19.9850201714 349
106.325438954 19.9850201714 346
106.325438954 19.9850201714 343
106.325438954 19.9850201714 340
105.630501444 19.8543991245 337
104.935563935 19.7237780776 334
104.240626425 19.5931570307 331
103.545688916 19.4625359839 328
103.545688916 19.4625359839 325
103.545688916 19.4625359839 322
102.155813897 19.2012938901 319
102.155813897 19.2012938901 316
101.460876387 19.0706728433 313
100.765938878 18.9400517964 310
100.765938878 18.9400517964 307
-29.1873753991 -5.48608396861 304
-35.4418129847 -6.66167339045 301
-41.6962505702 -7.8372628123 298
-47.9506881557 -9.01285223414 295
-58.3747507982 -10.9721679372 292
-73.6633760073 -13.8458309684 289
-73.6633760073 -13.8458309684 286
-74.3583135168 -13.9764520153 283
-74.3583135168 -13.9764520153 280
-75.0532510263 -14.1070730621 277
-75.7481885358 -14.237694109 274
-76.4431260453 -14.3683151559 271
-75.7481885358 -14.237694109 268
-76.4431260453 -14.3683151559 265
-78.5279385738 -14.7601782965 262
-77.8330010643 -14.6295572496 259
-76.4431260453 -14.3683151559 256
-75.0532510263 -14.1070730621 253
-75.0532510263 -14.1070730621 250
-75.7481885358 -14.237694109 247
-80.6127511023 -15.1520414371 244
-80.6127511023 -15.1520414371 241
-80.6127511023 -15.1520414371 238
-80.6127511023 -15.1520414371 235
-80.6127511023 -15.1520414371 232
-80.6127511023 -15.1520414371 229
-81.3076886118 -15.282662484 226
-80.6127511023 -15.1520414371 223
-81.3076886118 -15.282662484 220
-81.3076886118 -15.282662484 217
-81.3076886118 -15.282662484 214
-81.3076886118 -15.282662484 211
-81.3076886118 -15.282662484 208
-82.6975636309 -15.5439045777 205
-82.0026261213 -15.4132835308 202
-83.3925011404 -15.6745256246 199
-83.3925011404 -15.6745256246 196
-84.0874386499 -15.8051466715 193
-84.0874386499 -15.8051466715 190
-84.7823761594 -15.9357677183 187
-85.4773136689 -16.0663887652 184
-86.1722511784 -16.1970098121 181
-86.8671886879 -16.327630859 178
-86.8671886879 -16.327630859 175
-24.3228128326 -4.57173664051 142
-31.2721879276 -5.87794710922 139
-29.8823129086 -5.61670501548 136
-43.0861255892 -8.09850490604 133
-35.4418129847 -6.66167339045 130
-122.309001673 -22.9893042494 127
-125.088751711 -23.5117884369 124
-126.47862673 -23.7730305306 121
-126.47862673 -23.7730305306 118
-127.173564239 -23.9036515775 115
-129.258376768 -24.2955147181 112
-131.343189296 -24.6873778587 109
-133.428001825 -25.0792409993 106
-134.122939334 -25.2098620462 103
-135.512814353 -25.47110414 100
-136.207751863 -25.6017251868 97
-136.902689372 -25.7323462337 94
-137.597626882 -25.8629672806 91
-137.597626882 -25.8629672806 88
-132.038126806 -24.8179989056 79
-131.343189296 -24.6873778587 70
-130.648251787 -24.5567568119 67
110.12852995 22.631988227 370
108.743265422 22.3473091298 367
108.743265422 22.3473091298 364
108.743265422 22.3473091298 361
107.358000894 22.0626300326 358
106.665368631 21.920290484 355
107.358000894 22.0626300326 352
105.972736367 21.7779509354 349
105.972736367 21.7779509354 346
105.972736367 21.7779509354 343
105.972736367 21.7779509354 340
105.280104103 21.6356113868 337
104.587471839 21.4932718382 334
104.587471839 21.4932718382 331
103.202207311 21.208592741 328
103.202207311 21.208592741 325
102.509575048 21.0662531924 322
101.816942784 20.9239136438 319
101.12431052 20.7815740952 316
100.431678256 20.6392345466 313
100.431678256 20.6392345466 310
100.431678256 20.6392345466 307
-28.3979228172 -5.8359214925 304
-36.0168777194 -7.40165652707 301
-41.5579358301 -8.54037291585 298
-47.0989939408 -9.67908930463 295
-58.873742426 -12.0988616308 292
-73.4190199665 -15.0879921513 289
-72.7263877027 -14.9456526027 286
-73.4190199665 -15.0879921513 283
-74.1116522303 -15.2303316999 280
-74.8042844942 -15.3726712485 277
-75.496916758 -15.5150107971 274
-76.8821812857 -15.7996898943 271
-75.496916758 -15.5150107971 268
-76.1895490218 -15.6573503457 265
-78.2674458133 -16.0843689915 262
-76.8821812857 -15.7996898943 259
-75.496916758 -15.5150107971 256
-74.8042844942 -15.3726712485 253
-74.1116522303 -15.2303316999 250
-75.496916758 -15.5150107971 247
-80.3453426048 -16.5113876373 244
-79.652710341 -16.3690480887 241
-79.652710341 -16.3690480887 238
-80.3453426048 -16.5113876373 235
-79.652710341 -16.3690480887 232
-80.3453426048 -16.5113876373 229
-80.3453426048 -16.5113876373 226
-81.0379748687 -16.6537271859 223
-81.0379748687 -16.6537271859 220
-81.0379748687 -16.6537271859 217
-81.0379748687 -16.6537271859 214
-81.0379748687 -16.6537271859 211
-81.7306071325 -16.7960667345 208
-81.0379748687 -16.6537271859 205
-81.7306071325 -16.7960667345 202
-82.4232393964 -16.9384062831 199
-83.1158716602 -17.0807458317 196
-83.1158716602 -17.0807458317 193
-83.808503924 -17.2230853803 190
-84.5011361879 -17.3654249289 187
-85.1937684517 -17.5077644775 184
-85.8864007155 -17.6501040261 181
-85.8864007155 -17.6501040261 178
-86.5790329794 -17.7924435747 175
-86.5790329794 -17.7924435747 172
-86.5790329794 -17.7924435747 163
-86.5790329794 -17.7924435747 160
-24.2421292342 -4.98188420091 142
-31.1684518726 -6.40527968689 139
-29.7831873449 -6.12060058969 136
-41.5579358301 -8.54037291585 133
-26.3200260257 -5.40890284671 130
-122.595910699 -25.1941001018 127
-125.366439754 -25.7634582961 124
-126.059072018 -25.9057978447 121
-126.059072018 -25.9057978447 118
-126.059072018 -25.9057978447 115
-128.136968809 -26.3328164905 112
-130.214865601 -26.7598351363 109
-132.985394656 -27.3291933307 106
-134.370659184 -27.6138724279 103
-135.063291448 -27.7562119765 100
-135.755923712 -27.8985515251 97
-135.755923712 -27.8985515251 94
-136.448555975 -28.0408910737 91
-137.141188239 -28.1832306223 88
-130.907497865 -26.9021746849 85
-130.907497865 -26.9021746849 82
-130.907497865 -26.9021746849 79
-130.907497865 -26.9021746849 76
-130.214865601 -26.7598351363 73
-130.214865601 -26.7598351363 70
-129.522233337 -26.6174955877 67
109.040449558 24.3347562193 370
108.35032013 24.1807387748 367
108.35032013 24.1807387748 364
108.35032013 24.1807387748 361
106.970061275 23.872703886 358
106.970061275 23.872703886 355
106.279931847 23.7186864416 352
105.58980242 23.5646689971 349
105.58980242 23.5646689971 346
105.58980242 23.5646689971 343
105.58980242 23.5646689971 340
104.899672992 23.4106515527 337
104.209543565 23.2566341083 334
103.519414137 23.1026166639 331
102.829284709 22.9485992194 328
102.829284709 22.9485992194 325
102.139155282 22.794581775 322
101.449025854 22.6405643306 319
100.758896427 22.4865468862 316
100.068766999 22.3325294417 313
100.068766999 22.3325294417 310
100.068766999 22.3325294417 307
-28.2953065308 -6.31471522145 304
-35.8867302342 -8.00890711014 301
-41.4077656548 -9.24104666554 298
-49.6893187858 -11.0892559986 295
-61.4215190547 -13.7075525539 292
-72.463589896 -16.1718316647 289
-71.7734604684 -16.0178142203 286
-72.463589896 -16.1718316647 283
-73.8438487511 -16.4798665535 280
-74.5339781787 -16.633883998 277
-76.6043664614 -17.0959363313 274
-76.6043664614 -17.0959363313 271
-77.9846253166 -17.4039712201 268
-77.294495889 -17.2499537757 265
-76.6043664614 -17.0959363313 262
-75.9142370339 -16.9419188868 259
-74.5339781787 -16.633883998 256
-74.5339781787 -16.633883998 253
-74.5339781787 -16.633883998 250
-78.6747547442 -17.5579886645 247
-78.6747547442 -17.5579886645 244
-78.6747547442 -17.5579886645 241
-79.3648841718 -17.712006109 238
-78.6747547442 -17.5579886645 235
-78.6747547442 -17.5579886645 232
-79.3648841718 -17.712006109 229
-79.3648841718 -17.712006109 226
-79.3648841718 -17.712006109 223
-79.3648841718 -17.712006109 220
-80.0550135993 -17.8660235534 217
-80.0550135993 -17.8660235534 214
-80.7451430269 -18.0200409978 211
-80.7451430269 -18.0200409978 208
-81.4352724545 -18.1740584422 205
-81.4352724545 -18.1740584422 202
-81.4352724545 -18.1740584422 199
-82.8155313097 -18.4820933311 196
-82.8155313097 -18.4820933311 193
-82.8155313097 -18.4820933311 190
-83.5056607372 -18.6361107755 187
-84.8859195924 -18.9441456644 184
-84.8859195924 -18.9441456644 181
-85.57604902 -19.0981631088 178
-85.57604902 -19.0981631088 175
-86.2661784476 -19.2521805532 172
-86.2661784476 -19.2521805532 169
-86.2661784476 -19.2521805532 166
-86.2661784476 -19.2521805532 163
-54.5202247789 -12.1673781096 148
-24.1545299653 -5.3906105549 142
-32.4360830963 -7.23881988801 139
-31.0558242411 -6.93078499916 136
-42.0978950824 -9.39506410997 133
-35.1966008066 -7.85488966571 130
-121.462779254 -27.1070702189 127
-124.223296964 -27.7231399966 124
-125.60355582 -28.0311748855 121
-125.60355582 -28.0311748855 118
-125.60355582 -28.0311748855 115
-128.36407353 -28.6472446632 112
-129.054202958 -28.8012621076 109
-132.504850095 -29.5713493297 106
-133.194979523 -29.7253667742 103
-134.575238378 -30.033401663 100
-135.955497233 -30.3414365519 97
-135.955497233 -30.3414365519 94
-136.645626661 -30.4954539963 91
-136.645626661 -30.4954539963 88
-130.434461813 -29.1092969965 85
-129.744332385 -28.955279552 82
-129.744332385 -28.955279552 79
-129.744332385 -28.955279552 76
-129.744332385 -28.955279552 73
-129.744332385 -28.955279552 70
-128.36407353 -28.6472446632 67
109.301324643 26.3385730684 370
107.926465214 26.0072702625 367
107.926465214 26.0072702625 364
107.926465214 26.0072702625 361
106.551605784 25.6759674566 358
106.551605784 25.6759674566 355
105.176746355 25.3446646507 352
105.176746355 25.3446646507 349
105.176746355 25.3446646507 346
105.176746355 25.3446646507 343
104.48931664 25.1790132478 340
104.48931664 25.1790132478 337
103.801886925 25.0133618448 334
103.11445721 24.8477104419 331
102.427027496 24.6820590389 328
102.427027496 24.6820590389 325
102.427027496 24.6820590389 322
101.052168066 24.350756233 319
100.364738351 24.1851048301 316
100.364738351 24.1851048301 313
99.6773086367 24.0194534271 310
99.6773086367 24.0194534271 307
-29.5594777337 -7.12301032667 304
-36.433774881 -8.77952435613 301
-41.9332125989 -10.1047355797 298
-50.1823691757 -12.092552415 295
-69.4304011883 -16.7307916975 292
-72.1801200473 -17.3933973093 289
-70.8052606178 -17.0620945034 286
-71.4926903325 -17.2277459064 283
-72.867549762 -17.5590487123 280
-74.2424091915 -17.8903515181 277
-74.9298389062 -18.0560029211 274
-75.617268621 -18.221654324 271
-75.617268621 -18.221654324 268
-75.617268621 -18.221654324 265
-76.9921280504 -18.5529571299 262
-74.9298389062 -18.0560029211 259
-73.5549794768 -17.7247001152 256
-73.5549794768 -17.7247001152 253
-73.5549794768 -17.7247001152 250
-77.6795577652 -18.7186085329 247
-77.6795577652 -18.7186085329 244
-77.6795577652 -18.7186085329 241
-78.3669874799 -18.8842599358 238
-78.3669874799 -18.8842599358 235
-78.3669874799 -18.8842599358 232
-78.3669874799 -18.8842599358 229
-78.3669874799 -18.8842599358 226
-78.3669874799 -18.8842599358 223
-79.0544171946 -19.0499113388 220
-79.0544171946 -19.0499113388 217
-79.7418469094 -19.2155627417 214
-79.7418469094 -19.2155627417 211
-80.4292766241 -19.3812141447 208
-81.1167063389 -19.5468655476 205
-80.4292766241 -19.3812141447 202
-81.1167063389 -19.5468655476 199
-81.8041360536 -19.7125169506 196
-81.8041360536 -19.7125169506 193
-82.4915657683 -19.8781683535 190
-82.4915657683 -19.8781683535 187
-83.8664251978 -20.2094711594 184
-84.5538549125 -20.3751225623 181
-85.2412846273 -20.5407739653 178
-85.2412846273 -20.5407739653 175
-54.9943771789 -13.2521122357 148
-24.0600400158 -5.7977991031 142
-30.2469074484 -7.28866172962 139
-30.2469074484 -7.28866172962 136
-41.2457828842 -9.93908417675 133
-35.0589154515 -8.44822155024 130
-120.987629794 -29.1546469185 127
-123.737348652 -29.8172525302 124
-125.112208082 -30.1485553361 121
-125.112208082 -30.1485553361 118
-125.112208082 -30.1485553361 115
-127.861926941 -30.8111609479 112
-129.23678637 -31.1424637538 109
-131.986505229 -31.8050693656 106
-132.673934944 -31.9707207685 103
-134.048794374 -32.3020235744 100
-134.736224088 -32.4676749774 97
-134.736224088 -32.4676749774 94
-135.423653803 -32.6333263803 91
-136.111083518 -32.7989777833 88
-129.23678637 -31.1424637538 85
-129.23678637 -31.1424637538 82
-129.23678637 -31.1424637538 79
-129.23678637 -31.1424637538 76
-129.23678637 -31.1424637538 73
-128.549356656 -30.9768123509 70
-126.487067511 -30.479858142 67
108.156355483 28.0036206345 370
107.471821588 27.8263825292 367
107.471821588 27.8263825292 364
107.471821588 27.8263825292 361
106.102753797 27.4719063187 358
106.102753797 27.4719063187 355
104.733686006 27.1174301081 352
104.733686006 27.1174301081 349
104.733686006 27.1174301081 346
104.733686006 27.1174301081 343
104.733686006 27.1174301081 340
104.04915211 26.9401920028 337
103.364618215 26.7629538975 334
103.364618215 26.7629538975 331
101.995550424 26.408477687 328
101.995550424 26.408477687 325
101.995550424 26.408477687 322
100.626482633 26.0540014764 319
100.626482633 26.0540014764 316
99.9419487374 25.8767633711 313
99.257414842 25.6995252658 310
99.257414842 25.6995252658 307
-28.7504236094 -7.44400042183 304
-35.595762564 -9.21638147465 301
-41.0720337277 -10.6342863169 298
-49.9709743687 -12.9383816856 295
-69.8224573371 -18.0782867387 292
-71.8760590235 -18.6100010546 289
-71.191525128 -18.4327629493 286
-71.8760590235 -18.6100010546 283
-72.560592919 -18.7872391599 280
-74.6141946053 -19.3189534757 277
-73.9296607099 -19.1417153704 274
-75.2987285008 -19.496191581 271
-74.6141946053 -19.3189534757 268
-74.6141946053 -19.3189534757 265
-74.6141946053 -19.3189534757 262
-73.9296607099 -19.1417153704 259
-73.2451268144 -18.9644772651 256
-73.2451268144 -18.9644772651 253
-72.560592919 -18.7872391599 250
-77.3523301872 -20.0279058968 247
-77.3523301872 -20.0279058968 244
-77.3523301872 -20.0279058968 241
-78.0368640826 -20.2051440021 238
-78.0368640826 -20.2051440021 235
-78.0368640826 -20.2051440021 232
-78.0368640826 -20.2051440021 229
-78.0368640826 -20.2051440021 226
-78.7213979781 -20.3823821074 223
-78.0368640826 -20.2051440021 220
-78.7213979781 -20.3823821074 217
-79.4059318736 -20.5596202127 214
-79.4059318736 -20.5596202127 211
-80.090465769 -20.736858318 208
-80.090465769 -20.736858318 205
-80.7749996645 -20.9140964232 202
-80.7749996645 -20.9140964232 199
-81.45953356 -21.0913345285 196
-81.45953356 -21.0913345285 193
-82.1440674554 -21.2685726338 190
-82.8286013509 -21.4458107391 187
-82.8286013509 -21.4458107391 184
-84.1976691418 -21.8002869497 181
-84.8822030373 -21.9775250549 178
-84.8822030373 -21.9775250549 175
-84.8822030373 -21.9775250549 172
-85.5667369327 -22.1547631602 160
-55.4472455324 -14.3562865278 148
-23.9586863412 -6.20333368486 142
-31.4885591912 -8.15295284296 139
-30.8040252958 -7.97571473768 136
-41.7565676232 -10.8115244222 133
-34.9112286686 -9.03914336937 130
-120.477965601 -31.1939065296 127
-123.900635079 -32.080097056 124
-124.585168974 -32.2573351613 121
-124.585168974 -32.2573351613 118
-124.585168974 -32.2573351613 115
-127.323304556 -32.9662875824 112
-128.692372347 -33.320763793 109
-132.115041824 -34.2069543194 106
-132.115041824 -34.2069543194 103
-133.484109615 -34.5614305299 100
-134.853177406 -34.9159067405 97
-134.853177406 -34.9159067405 94
-135.537711301 -35.0931448458 91
-135.537711301 -35.0931448458 88
-130.061440138 -33.6752400035 85
-129.376906242 -33.4980018982 82
-129.376906242 -33.4980018982 79
-129.376906242 -33.4980018982 76
-129.376906242 -33.4980018982 73
-129.376906242 -33.4980018982 70
-126.63877066 -32.7890494771 67
107.667961746 29.8263308741 370
106.98651895 29.637556628 367
106.98651895 29.637556628 364
106.98651895 29.637556628 361
105.623633359 29.2600081359 358
104.942190563 29.0712338899 355
104.942190563 29.0712338899 352
104.260747767 28.8824596439 349
104.260747767 28.8824596439 346
104.260747767 28.8824596439 343
104.260747767 28.8824596439 340
103.579304971 28.6936853978 337
102.897862175 28.5049111518 334
102.897862175 28.5049111518 331
101.534976583 28.1273626597 328
101.534976583 28.1273626597 325
100.853533788 27.9385884137 322
100.172090992 27.7498141676 319
99.4906481959 27.5610399216 316
99.4906481959 27.5610399216 313
98.8092054 27.3722656756 310
98.8092054 27.3722656756 307
-29.3020402221 -8.11729257965 304
-36.7979109766 -10.1938092861 301
-41.5680105476 -11.5152290083 298
-51.7896524855 -14.3468426989 295
-68.8257223821 -19.0661988499 292
-70.8700507697 -19.632521588 289
-70.1886079738 -19.4437473419 286
-70.8700507697 -19.632521588 283
-71.5514935655 -19.821295834 280
-72.9143791573 -20.1988443261 277
-73.5958219531 -20.3876185721 274
-74.277264749 -20.5763928182 271
-74.277264749 -20.5763928182 268
-73.5958219531 -20.3876185721 265
-72.2329363614 -20.0100700801 262
-74.277264749 -20.5763928182 259
-72.9143791573 -20.1988443261 256
-71.5514935655 -19.821295834 253
-72.2329363614 -20.0100700801 250
-77.0030359324 -21.3314898023 247
-76.3215931366 -21.1427155563 244
-77.0030359324 -21.3314898023 241
-76.3215931366 -21.1427155563 238
-77.0030359324 -21.3314898023 235
-77.0030359324 -21.3314898023 232
-77.0030359324 -21.3314898023 229
-77.0030359324 -21.3314898023 226
-77.6844787283 -21.5202640484 223
-77.6844787283 -21.5202640484 220
-78.3659215242 -21.7090382944 217
-78.3659215242 -21.7090382944 214
-78.3659215242 -21.7090382944 211
-79.04736432 -21.8978125404 208
-79.7288071159 -22.0865867865 205
-79.7288071159 -22.0865867865 202
-80.4102499118 -22.2753610325 199
-80.4102499118 -22.2753610325 196
-81.0916927076 -22.4641352786 193
-81.7731355035 -22.6529095246 190
-82.4545782993 -22.8416837706 187
-82.4545782993 -22.8416837706 184
-83.1360210952 -23.0304580167 181
-84.4989066869 -23.4080065088 178
-84.4989066869 -23.4080065088 175
-84.4989066869 -23.4080065088 172
-85.1803494828 -23.5967807548 166
-84.4989066869 -23.4080065088 163
-84.4989066869 -23.4080065088 160
-55.1968664648 -15.2907139291 151
-55.8783092607 -15.4794881751 148
-23.1690550593 -6.4183243653 142
-29.3020402221 -8.11729257965 139
-29.3020402221 -8.11729257965 136
-15.6731843048 -4.34180765888 133
-34.753582589 -9.62748654795 130
-119.933932072 -33.2242673027 127
-123.341146051 -34.1681385329 124
-124.022588847 -34.356912779 121
-124.022588847 -34.356912779 118
-124.022588847 -34.356912779 115
-126.74836003 -35.1120097631 112
-128.792688418 -35.6783325012 109
-130.837016806 -36.2446552394 106
-131.518459601 -36.4334294854 103
-132.881345193 -36.8109779775 100
-133.562787989 -36.9997522235 97
-134.244230785 -37.1885264695 94
-134.925673581 -37.3773007156 91
-133.562787989 -36.9997522235 88
-130.837016806 -36.2446552394 85
-130.15557401 -36.0558809933 82
-130.15557401 -36.0558809933 79
-130.837016806 -36.2446552394 76
-130.837016806 -36.2446552394 73
-130.837016806 -36.2446552394 70
-128.792688418 -35.6783325012 67
107.148853045 31.6405324106 370
106.470695747 31.4402758764 367
106.470695747 31.4402758764 364
106.470695747 31.4402758764 361
105.114381151 31.0397628079 358
105.114381151 31.0397628079 355
104.436223854 30.8395062736 352
103.758066556 30.6392497394 349
103.758066556 30.6392497394 346
103.758066556 30.6392497394 343
103.758066556 30.6392497394 340
102.40175196 30.2387366709 337
102.40175196 30.2387366709 334
102.40175196 30.2387366709 331
101.045437365 29.8382236024 328
101.045437365 29.8382236024 325
100.367280067 29.6379670682 322
99.6891227693 29.4377105339 319
99.6891227693 29.4377105339 316
98.3328081738 29.0371974654 313
98.3328081738 29.0371974654 310
98.3328081738 29.0371974654 307
-30.5170783988 -9.011544041 304
-36.6204940785 -10.8138528492 301
-42.0457524605 -12.4159051232 298
-52.8962692245 -15.6200096711 295
-69.1720443706 -20.4261664929 292
-70.5283589661 -20.8266795614 289
-69.8502016683 -20.6264230272 286
-70.5283589661 -20.8266795614 283
-71.2065162638 -21.0269360957 280
-72.5628308593 -21.4274491642 277
-72.5628308593 -21.4274491642 274
-72.5628308593 -21.4274491642 271
-73.2409881571 -21.6277056984 268
-72.5628308593 -21.4274491642 265
-72.5628308593 -21.4274491642 262
-73.2409881571 -21.6277056984 259
-72.5628308593 -21.4274491642 256
-70.5283589661 -20.8266795614 253
-71.8846735616 -21.2271926299 250
-75.2754600503 -22.2284753011 247
-75.9536173481 -22.4287318354 244
-75.9536173481 -22.4287318354 241
-75.9536173481 -22.4287318354 238
-75.9536173481 -22.4287318354 235
-75.9536173481 -22.4287318354 232
-75.9536173481 -22.4287318354 229
-76.6317746458 -22.6289883696 226
-76.6317746458 -22.6289883696 223
-77.3099319436 -22.8292449039 220
-77.3099319436 -22.8292449039 217
-77.3099319436 -22.8292449039 214
-78.6662465391 -23.2297579724 211
-78.6662465391 -23.2297579724 208
-78.6662465391 -23.2297579724 205
-79.3444038368 -23.4300145066 202
-80.0225611346 -23.6302710408 199
-80.0225611346 -23.6302710408 196
-80.7007184323 -23.8305275751 193
-80.7007184323 -23.8305275751 190
-81.3788757301 -24.0307841093 187
-82.0570330278 -24.2310406436 184
-82.7351903256 -24.4312971778 181
-83.4133476233 -24.6315537121 178
-84.0915049211 -24.8318102463 175
-84.0915049211 -24.8318102463 172
-84.0915049211 -24.8318102463 169
-84.0915049211 -24.8318102463 166
-84.0915049211 -24.8318102463 163
-84.0915049211 -24.8318102463 160
-54.25258382 -16.0205227396 151
-21.701033528 -6.40820909582 142
-30.5170783988 -9.011544041 139
-29.838921101 -8.81128750675 136
-40.0112805673 -11.8151355204 133
-44.0802243538 -13.0166747259 130
-40.689437865 -12.0153920547 127
-123.424628191 -36.4466892325 124
-124.102785488 -36.6469457667 121
-124.102785488 -36.6469457667 118
-124.102785488 -36.6469457667 115
-125.459100084 -37.0474588352 112
-128.849886573 -38.0487415064 109
-130.206201168 -38.4492545749 106
-131.562515764 -38.8497676434 103
-132.918830359 -39.2502807119 100
-132.918830359 -39.2502807119 97
-133.596987657 -39.4505372462 94
-133.596987657 -39.4505372462 91
-134.275144955 -39.6507937804 88
-134.275144955 -39.6507937804 85
-134.275144955 -39.6507937804 82
-134.275144955 -39.6507937804 79
-134.275144955 -39.6507937804 76
-134.275144955 -39.6507937804 73
-132.918830359 -39.2502807119 70
-130.884358466 -38.6495111092 67
106.599177467 33.4457076981 370
105.924499128 33.2340260038 367
105.924499128 33.2340260038 364
105.924499128 33.2340260038 361
104.575142451 32.8106626152 358
104.575142451 32.8106626152 355
103.900464113 32.5989809209 352
103.225785775 32.3872992266 349
103.225785775 32.3872992266 346
103.225785775 32.3872992266 343
103.225785775 32.3872992266 340
101.876429098 31.963935838 337
101.876429098 31.963935838 334
101.876429098 31.963935838 331
100.527072421 31.5405724495 328
100.527072421 31.5405724495 325
99.8523940827 31.3288907552 322
99.1777157443 31.1172090609 319
99.1777157443 31.1172090609 316
98.5030374059 30.9055273666 313
97.8283590675 30.6938456723 310
97.8283590675 30.6938456723 307
-30.3605252279 -9.52567624312 304
-36.4326302734 -11.4308114917 301
-43.1794136574 -13.5476284347 298
-52.6249103949 -16.5111721547 295
-67.4678338397 -21.1681694292 292
-70.1665471933 -22.0148962063 289
-69.4918688549 -21.803214512 286
-70.1665471933 -22.0148962063 283
-71.5159038701 -22.4382595949 280
-71.5159038701 -22.4382595949 277
-53.9742670717 -16.9345355433 274
-73.5399388852 -23.0733046778 271
-72.1905822085 -22.6499412892 268
-73.5399388852 -23.0733046778 265
-71.5159038701 -22.4382595949 262
-71.5159038701 -22.4382595949 259
-71.5159038701 -22.4382595949 256
-70.8412255317 -22.2265779006 253
-72.8652605469 -22.8616229835 250
-74.889295562 -23.4966680664 247
-74.889295562 -23.4966680664 244
-75.5639739004 -23.7083497607 241
-75.5639739004 -23.7083497607 238
-75.5639739004 -23.7083497607 235
-75.5639739004 -23.7083497607 232
-75.5639739004 -23.7083497607 229
-75.5639739004 -23.7083497607 226
-76.2386522388 -23.920031455 223
-76.9133305772 -24.1317131492 220
-76.9133305772 -24.1317131492 217
-76.9133305772 -24.1317131492 214
-76.9133305772 -24.1317131492 211
-78.262687254 -24.5550765378 208
-78.262687254 -24.5550765378 205
-78.9373655924 -24.7667582321 202
-79.6120439308 -24.9784399264 199
-79.6120439308 -24.9784399264 196
-80.2867222692 -25.1901216207 193
-80.2867222692 -25.1901216207 190
-80.9614006076 -25.401803315 187
-80.9614006076 -25.401803315 184
-82.3107572844 -25.8251667036 181
-82.9854356228 -26.0368483979 178
-83.6601139612 -26.2485300922 175
-82.9854356228 -26.0368483979 172
-83.6601139612 -26.2485300922 169
-83.6601139612 -26.2485300922 166
-82.9854356228 -26.0368483979 163
-83.6601139612 -26.2485300922 160
-55.3236237485 -17.3578989319 151
-18.2163151367 -5.71540574587 145
-20.9150284903 -6.56213252304 142
-30.3605252279 -9.52567624312 139
-31.0352035663 -9.73735793742 136
-18.2163151367 -5.71540574587 133
-43.8540919958 -13.759310129 130
-40.4807003038 -12.7009016575 127
-120.767422573 -37.8910232782 118
-122.791457588 -38.5260683611 115
-123.466135927 -38.7377500554 112
-124.140814265 -38.9494317497 109
-132.236954326 -41.4896120812 88
-133.586311003 -41.9129754697 85
-133.586311003 -41.9129754697 82
-133.586311003 -41.9129754697 79
-133.586311003 -41.9129754697 76
-133.586311003 -41.9129754697 73
-132.236954326 -41.4896120812 70
-126.839527619 -39.7961585268 67
105.348084911 35.0182952984 370
105.348084911 35.0182952984 367
105.348084911 35.0182952984 364
105.348084911 35.0182952984 361
104.00607109 34.5722023647 358
103.33506418 34.3491558978 355
103.33506418 34.3491558978 352
102.66405727 34.1261094309 349
102.66405727 34.1261094309 346
102.66405727 34.1261094309 343
102.66405727 34.1261094309 340
101.99305036 33.9030629641 337
101.322043449 33.6800164972 334
101.322043449 33.6800164972 331
99.9800296288 33.2339235635 328
99.9800296288 33.2339235635 325
99.3090227186 33.0108770966 322
98.6380158083 32.7878306297 319
97.967008898 32.5647841628 316
97.2960019878 32.341737696 313
97.2960019878 32.341737696 310
97.2960019878 32.341737696 307
-30.1953109617 -10.0370910091 304
-36.2343731541 -12.0445092109 301
-43.6154491669 -14.4980203465 298
-52.3385390003 -17.3976244158 295
-67.7716979363 -22.5276931537 292
-69.1137117568 -22.9737860875 289
-69.7847186671 -23.1968325544 286
-69.7847186671 -23.1968325544 283
-70.4557255774 -23.4198790212 280
-71.7977393979 -23.865971955 277
-71.7977393979 -23.865971955 274
-71.7977393979 -23.865971955 271
-71.7977393979 -23.865971955 268
-71.7977393979 -23.865971955 265
-71.7977393979 -23.865971955 262
-71.1267324876 -23.6429254881 259
-69.7847186671 -23.1968325544 256
-69.7847186671 -23.1968325544 253
-73.8107601287 -24.5351113556 250
-74.4817670389 -24.7581578224 247
-74.4817670389 -24.7581578224 244
-75.1527739492 -24.9812042893 241
-74.4817670389 -24.7581578224 238
-75.1527739492 -24.9812042893 235
-75.1527739492 -24.9812042893 232
-75.1527739492 -24.9812042893 229
-75.1527739492 -24.9812042893 226
-75.1527739492 -24.9812042893 223
-75.8237808594 -25.2042507562 220
-75.8237808594 -25.2042507562 217
-76.4947877697 -25.427297223 214
-76.4947877697 -25.427297223 211
-77.8368015902 -25.8733901568 208
-77.8368015902 -25.8733901568 205
-77.8368015902 -25.8733901568 202
-79.1788154107 -26.3194830905 199
-79.1788154107 -26.3194830905 196
-79.849822321 -26.5425295574 193
-79.849822321 -26.5425295574 190
-80.5208292313 -26.7655760243 187
-80.5208292313 -26.7655760243 184
-81.1918361415 -26.9886224911 181
-82.533849962 -27.4347154249 178
-83.2048568723 -27.6577618917 175
-82.533849962 -27.4347154249 172
-82.533849962 -27.4347154249 169
-83.2048568723 -27.6577618917 166
-83.2048568723 -27.6577618917 163
-83.2048568723 -27.6577618917 160
-56.3645804619 -18.735903217 151
-17.4461796668 -5.79920813859 145
-20.8012142181 -6.91444047293 142
-30.1953109617 -10.0370910091 139
-30.1953109617 -10.0370910091 136
-38.9184007951 -12.9366950784 133
-42.9444422567 -14.2749738796 130
-40.2604146156 -13.3827880121 127
-116.755202385 -38.8100852352 124
-118.097216206 -39.2561781689 121
-120.110236937 -39.9253175695 118
-121.452250757 -40.3714105033 115
-122.794264578 -40.817503437 112
-123.465271488 -41.0405499039 109
-124.136278398 -41.2635963707 106
-125.478292219 -41.7096893045 103
-128.16231986 -42.6018751719 91
-130.175340591 -43.2710145725 88
-132.859368232 -44.16320044 85
-132.859368232 -44.16320044 82
-132.859368232 -44.16320044 79
-132.859368232 -44.16320044 76
-132.859368232 -44.16320044 73
-131.517354411 -43.7171075063 70
-131.517354411 -43.7171075063 67
104.741617531 36.792574753 370
104.741617531 36.792574753 367
104.741617531 36.792574753 364
104.741617531 36.792574753 361
103.40732941 36.3238795332 358
103.40732941 36.3238795332 355
102.740185349 36.0895319233 352
102.073041288 35.8551843134 349
102.073041288 35.8551843134 346
102.073041288 35.8551843134 343
102.073041288 35.8551843134 340
101.405897228 35.6208367035 337
100.738753167 35.3864890937 334
100.071609106 35.1521414838 331
99.4044650455 34.9177938739 328
99.4044650455 34.9177938739 325
98.7373209848 34.683446264 322
98.0701769241 34.4490986541 319
97.4030328634 34.2147510442 316
97.4030328634 34.2147510442 313
96.7358888027 33.9804034343 310
96.7358888027 33.9804034343 307
-32.022914914 -11.2486852748 304
-38.0272114604 -13.3578137638 301
-44.0315080067 -15.4669422529 298
-50.7029486138 -17.8104183518 295
-68.0486941922 -23.903456209 292
-68.0486941922 -23.903456209 289
-68.0486941922 -23.903456209 286
-68.7158382529 -24.1378038189 283
-70.0501263743 -24.6064990386 280
-70.7172704351 -24.8408466485 277
-71.3844144958 -25.0751942584 274
-71.3844144958 -25.0751942584 271
-71.3844144958 -25.0751942584 268
-71.3844144958 -25.0751942584 265
-71.3844144958 -25.0751942584 262
-69.3829823136 -24.3721514287 259
-69.3829823136 -24.3721514287 256
-68.0486941922 -23.903456209 253
-74.0529907386 -26.012584698 250
-74.0529907386 -26.012584698 247
-74.0529907386 -26.012584698 244
