129.523748701 22.8385315384 522
139.272848065 24.557560794 513
146.236490469 25.7854388337 504
146.236490469 25.7854388337 495
146.236490469 25.7854388337 486
146.236490469 25.7854388337 477
146.236490469 25.7854388337 468
146.236490469 25.7854388337 459
146.236490469 25.7854388337 450
146.236490469 25.7854388337 441
146.236490469 25.7854388337 432
144.843761988 25.5398632258 423
196.374715772 34.6261607196 414
196.374715772 34.6261607196 405
196.374715772 34.6261607196 396
196.374715772 34.6261607196 387
196.374715772 34.6261607196 378
196.374715772 34.6261607196 369
196.374715772 34.6261607196 360
196.374715772 34.6261607196 351
196.374715772 34.6261607196 342
196.374715772 34.6261607196 333
196.374715772 34.6261607196 324
196.374715772 34.6261607196 315
196.374715772 34.6261607196 306
196.374715772 34.6261607196 297
196.374715772 34.6261607196 288
196.374715772 34.6261607196 279
196.374715772 34.6261607196 270
196.374715772 34.6261607196 261
196.374715772 34.6261607196 252
196.374715772 34.6261607196 243
196.374715772 34.6261607196 234
196.374715772 34.6261607196 225
196.374715772 34.6261607196 216
196.374715772 34.6261607196 207
196.374715772 34.6261607196 198
196.374715772 34.6261607196 189
196.374715772 34.6261607196 180
196.374715772 34.6261607196 171
196.374715772 34.6261607196 162
196.374715772 34.6261607196 153
196.374715772 34.6261607196 144
196.374715772 34.6261607196 135
196.374715772 34.6261607196 126
196.374715772 34.6261607196 117
196.374715772 34.6261607196 108
196.374715772 34.6261607196 99
196.374715772 34.6261607196 90
196.374715772 34.6261607196 81
196.374715772 34.6261607196 72
196.374715772 34.6261607196 63
196.374715772 34.6261607196 54
196.374715772 34.6261607196 45
196.374715772 34.6261607196 36
51.8281159028 18.8638914867 585
62.4595242931 22.7334076891 576
71.7620066346 26.1192343662 567
82.393415025 29.9887505686 558
93.0248234153 33.858266771 549
102.327305757 37.2440934481 540
112.958714147 41.1136096505 531
123.590122537 44.9831258529 522
132.892604879 48.36895253 513
139.537235123 50.7874001565 504
139.537235123 50.7874001565 495
139.537235123 50.7874001565 486
139.537235123 50.7874001565 477
139.537235123 50.7874001565 468
139.537235123 50.7874001565 459
139.537235123 50.7874001565 450
139.537235123 50.7874001565 441
139.537235123 50.7874001565 432
138.208309074 50.3037106312 423
187.378572879 68.2002230674 414
187.378572879 68.2002230674 405
187.378572879 68.2002230674 396
187.378572879 68.2002230674 387
187.378572879 68.2002230674 378
187.378572879 68.2002230674 369
187.378572879 68.2002230674 360
187.378572879 68.2002230674 351
187.378572879 68.2002230674 342
187.378572879 68.2002230674 333
187.378572879 68.2002230674 324
187.378572879 68.2002230674 315
187.378572879 68.2002230674 306
187.378572879 68.2002230674 297
187.378572879 68.2002230674 288
187.378572879 68.2002230674 279
187.378572879 68.2002230674 270
187.378572879 68.2002230674 261
187.378572879 68.2002230674 252
187.378572879 68.2002230674 243
187.378572879 68.2002230674 234
187.378572879 68.2002230674 225
187.378572879 68.2002230674 216
187.378572879 68.2002230674 207
187.378572879 68.2002230674 198
187.378572879 68.2002230674 189
187.378572879 68.2002230674 180
187.378572879 68.2002230674 171
187.378572879 68.2002230674 162
187.378572879 68.2002230674 153
187.378572879 68.2002230674 144
187.378572879 68.2002230674 135
187.378572879 68.2002230674 126
187.378572879 68.2002230674 117
187.378572879 68.2002230674 108
187.378572879 68.2002230674 99
187.378572879 68.2002230674 90
187.378572879 68.2002230674 81
187.378572879 68.2002230674 72
187.378572879 68.2002230674 63
187.378572879 68.2002230674 54
187.378572879 68.2002230674 45
187.378572879 68.2002230674 36
47.7650499847 27.5771644665 585
57.5630089559 33.2340187161 576
66.1362230558 38.1837661844 567
75.934182027 43.840620434 558
85.7321409982 49.4974746835 549
94.305355098 54.4472221519 540
104.103314069 60.1040764014 531
113.90127304 65.760930651 522
122.47448714 70.7106781193 513
128.598211497 74.2462120253 504
128.598211497 74.2462120253 495
128.598211497 74.2462120253 486
128.598211497 74.2462120253 477
128.598211497 74.2462120253 468
128.598211497 74.2462120253 459
128.598211497 74.2462120253 450
128.598211497 74.2462120253 441
128.598211497 74.2462120253 432
127.373466626 73.5391052441 423
172.689026868 99.7020561482 414
172.689026868 99.7020561482 405
172.689026868 99.7020561482 396
172.689026868 99.7020561482 387
172.689026868 99.7020561482 378
172.689026868 99.7020561482 369
172.689026868 99.7020561482 360
172.689026868 99.7020561482 351
172.689026868 99.7020561482 342
172.689026868 99.7020561482 333
172.689026868 99.7020561482 324
172.689026868 99.7020561482 315
172.689026868 99.7020561482 306
172.689026868 99.7020561482 297
172.689026868 99.7020561482 288
172.689026868 99.7020561482 279
172.689026868 99.7020561482 270
172.689026868 99.7020561482 261
172.689026868 99.7020561482 252
172.689026868 99.7020561482 243
172.689026868 99.7020561482 234
172.689026868 99.7020561482 225
172.689026868 99.7020561482 216
172.689026868 99.7020561482 207
172.689026868 99.7020561482 198
172.689026868 99.7020561482 189
172.689026868 99.7020561482 180
172.689026868 99.7020561482 171
172.689026868 99.7020561482 162
172.689026868 99.7020561482 153
172.689026868 99.7020561482 144
172.689026868 99.7020561482 135
172.689026868 99.7020561482 126
172.689026868 99.7020561482 117
172.689026868 99.7020561482 108
172.689026868 99.7020561482 99
172.689026868 99.7020561482 90
172.689026868 99.7020561482 81
172.689026868 99.7020561482 72
172.689026868 99.7020561482 63
172.689026868 99.7020561482 54
172.689026868 99.7020561482 45
172.689026868 99.7020561482 36
42.2506671931 35.4525192587 585
50.9174707199 42.7248309016 576
58.5009238059 49.088103589 567
67.1677273327 56.3604152319 558
75.8345308595 63.6327268747 549
83.4179839454 69.9959995621 540
92.0847874722 77.268311205 531
100.751590999 84.5406228478 522
108.335044085 90.9038955353 513
113.751796289 95.449090312 504
113.751796289 95.449090312 495
113.751796289 95.449090312 486
113.751796289 95.449090312 477
113.751796289 95.449090312 468
113.751796289 95.449090312 459
113.751796289 95.449090312 450
113.751796289 95.449090312 441
113.751796289 95.449090312 432
112.668445848 94.5400513567 423
152.75241216 128.174492705 414
152.75241216 128.174492705 405
152.75241216 128.174492705 396
152.75241216 128.174492705 387
152.75241216 128.174492705 378
152.75241216 128.174492705 369
152.75241216 128.174492705 360
152.75241216 128.174492705 351
152.75241216 128.174492705 342
152.75241216 128.174492705 333
152.75241216 128.174492705 324
152.75241216 128.174492705 315
152.75241216 128.174492705 306
152.75241216 128.174492705 297
152.75241216 128.174492705 288
152.75241216 128.174492705 279
152.75241216 128.174492705 270
152.75241216 128.174492705 261
152.75241216 128.174492705 252
152.75241216 128.174492705 243
152.75241216 128.174492705 234
152.75241216 128.174492705 225
152.75241216 128.174492705 216
152.75241216 128.174492705 207
152.75241216 128.174492705 198
152.75241216 128.174492705 189
152.75241216 128.174492705 180
152.75241216 128.174492705 171
152.75241216 128.174492705 162
152.75241216 128.174492705 153
152.75241216 128.174492705 144
152.75241216 128.174492705 135
152.75241216 128.174492705 126
152.75241216 128.174492705 117
152.75241216 128.174492705 108
152.75241216 128.174492705 99
152.75241216 128.174492705 90
152.75241216 128.174492705 81
152.75241216 128.174492705 72
152.75241216 128.174492705 63
152.75241216 128.174492705 54
152.75241216 128.174492705 45
152.75241216 128.174492705 36
35.4525192587 42.2506671931 585
42.7248309016 50.9174707199 576
49.088103589 58.5009238059 567
56.3604152319 67.1677273327 558
63.6327268747 75.8345308595 549
69.9959995621 83.4179839454 540
77.268311205 92.0847874722 531
84.5406228478 100.751590999 522
90.9038955353 108.335044085 513
95.449090312 113.751796289 504
95.449090312 113.751796289 495
95.449090312 113.751796289 486
95.449090312 113.751796289 477
95.449090312 113.751796289 468
95.449090312 113.751796289 459
95.449090312 113.751796289 450
95.449090312 113.751796289 441
95.449090312 113.751796289 432
94.5400513567 112.668445848 423
128.174492705 152.75241216 414
128.174492705 152.75241216 405
128.174492705 152.75241216 396
128.174492705 152.75241216 387
128.174492705 152.75241216 378
128.174492705 152.75241216 369
128.174492705 152.75241216 360
128.174492705 152.75241216 351
128.174492705 152.75241216 342
128.174492705 152.75241216 333
128.174492705 152.75241216 324
128.174492705 152.75241216 315
128.174492705 152.75241216 306
128.174492705 152.75241216 297
128.174492705 152.75241216 288
128.174492705 152.75241216 279
128.174492705 152.75241216 270
128.174492705 152.75241216 261
128.174492705 152.75241216 252
128.174492705 152.75241216 243
128.174492705 152.75241216 234
128.174492705 152.75241216 225
128.174492705 152.75241216 216
128.174492705 152.75241216 207
128.174492705 152.75241216 198
128.174492705 152.75241216 189
128.174492705 152.75241216 180
128.174492705 152.75241216 171
128.174492705 152.75241216 162
128.174492705 152.75241216 153
128.174492705 152.75241216 144
128.174492705 152.75241216 135
128.174492705 152.75241216 126
128.174492705 152.75241216 117
128.174492705 152.75241216 108
128.174492705 152.75241216 99
128.174492705 152.75241216 90
128.174492705 152.75241216 81
128.174492705 152.75241216 72
128.174492705 152.75241216 63
128.174492705 152.75241216 54
128.174492705 152.75241216 45
128.174492705 152.75241216 36
27.5771644665 47.7650499847 585
33.2340187161 57.5630089559 576
38.1837661844 66.1362230558 567
43.840620434 75.934182027 558
49.4974746835 85.7321409982 549
54.4472221519 94.305355098 540
60.1040764014 104.103314069 531
65.760930651 113.90127304 522
70.7106781193 122.47448714 513
74.2462120253 128.598211497 504
74.2462120253 128.598211497 495
74.2462120253 128.598211497 486
74.2462120253 128.598211497 477
74.2462120253 128.598211497 468
74.2462120253 128.598211497 459
74.2462120253 128.598211497 450
74.2462120253 128.598211497 441
74.2462120253 128.598211497 432
73.5391052441 127.373466626 423
99.7020561482 172.689026868 414
99.7020561482 172.689026868 405
99.7020561482 172.689026868 396
99.7020561482 172.689026868 387
99.7020561482 172.689026868 378
99.7020561482 172.689026868 369
99.7020561482 172.689026868 360
99.7020561482 172.689026868 351
99.7020561482 172.689026868 342
99.7020561482 172.689026868 333
99.7020561482 172.689026868 324
99.7020561482 172.689026868 315
99.7020561482 172.689026868 306
99.7020561482 172.689026868 297
99.7020561482 172.689026868 288
99.7020561482 172.689026868 279
99.7020561482 172.689026868 270
99.7020561482 172.689026868 261
99.7020561482 172.689026868 252
99.7020561482 172.689026868 243
99.7020561482 172.689026868 234
99.7020561482 172.689026868 225
99.7020561482 172.689026868 216
99.7020561482 172.689026868 207
99.7020561482 172.689026868 198
99.7020561482 172.689026868 189
99.7020561482 172.689026868 180
99.7020561482 172.689026868 171
99.7020561482 172.689026868 162
99.7020561482 172.689026868 153
99.7020561482 172.689026868 144
99.7020561482 172.689026868 135
99.7020561482 172.689026868 126
99.7020561482 172.689026868 117
99.7020561482 172.689026868 108
99.7020561482 172.689026868 99
99.7020561482 172.689026868 90
99.7020561482 172.689026868 81
99.7020561482 172.689026868 72
99.7020561482 172.689026868 63
99.7020561482 172.689026868 54
99.7020561482 172.689026868 45
99.7020561482 172.689026868 36
18.8638914867 51.8281159028 585
22.7334076891 62.4595242931 576
26.1192343662 71.7620066346 567
29.9887505686 82.393415025 558
33.858266771 93.0248234153 549
37.2440934481 102.327305757 540
41.1136096505 112.958714147 531
44.9831258529 123.590122537 522
48.36895253 132.892604879 513
50.7874001565 139.537235123 504
50.7874001565 139.537235123 495
50.7874001565 139.537235123 486
50.7874001565 139.537235123 477
50.7874001565 139.537235123 468
50.7874001565 139.537235123 459
50.7874001565 139.537235123 450
50.7874001565 139.537235123 441
50.7874001565 139.537235123 432
50.3037106312 138.208309074 423
68.2002230674 187.378572879 414
68.2002230674 187.378572879 405
68.2002230674 187.378572879 396
68.2002230674 187.378572879 387
68.2002230674 187.378572879 378
68.2002230674 187.378572879 369
68.2002230674 187.378572879 360
68.2002230674 187.378572879 351
68.2002230674 187.378572879 342
68.2002230674 187.378572879 333
68.2002230674 187.378572879 324
68.2002230674 187.378572879 315
68.2002230674 187.378572879 306
68.2002230674 187.378572879 297
68.2002230674 187.378572879 288
68.2002230674 187.378572879 279
68.2002230674 187.378572879 270
68.2002230674 187.378572879 261
68.2002230674 187.378572879 252
68.2002230674 187.378572879 243
68.2002230674 187.378572879 234
68.2002230674 187.378572879 225
68.2002230674 187.378572879 216
68.2002230674 187.378572879 207
68.2002230674 187.378572879 198
68.2002230674 187.378572879 189
68.2002230674 187.378572879 180
68.2002230674 187.378572879 171
68.2002230674 187.378572879 162
68.2002230674 187.378572879 153
68.2002230674 187.378572879 144
68.2002230674 187.378572879 135
68.2002230674 187.378572879 126
68.2002230674 187.378572879 117
68.2002230674 187.378572879 108
68.2002230674 187.378572879 99
68.2002230674 187.378572879 90
68.2002230674 187.378572879 81
68.2002230674 187.378572879 72
68.2002230674 187.378572879 63
68.2002230674 187.378572879 54
68.2002230674 187.378572879 45
68.2002230674 187.378572879 36
9.57744870967 54.3164107455 585
11.5420535732 65.4582385907 576
13.2610828288 75.2073379553 567
15.2256876923 86.3491658005 558
17.1902925558 97.4909936457 549
18.9093218114 107.24009301 540
20.8739266749 118.381920855 531
22.8385315384 129.523748701 522
24.557560794 139.272848065 513
25.7854388337 146.236490469 504
25.7854388337 146.236490469 495
25.7854388337 146.236490469 486
25.7854388337 146.236490469 477
25.7854388337 146.236490469 468
25.7854388337 146.236490469 459
25.7854388337 146.236490469 450
25.7854388337 146.236490469 441
25.7854388337 146.236490469 432
25.5398632258 144.843761988 423
34.6261607196 196.374715772 414
34.6261607196 196.374715772 405
34.6261607196 196.374715772 396
34.6261607196 196.374715772 387
34.6261607196 196.374715772 378
34.6261607196 196.374715772 369
34.6261607196 196.374715772 360
34.6261607196 196.374715772 351
34.6261607196 196.374715772 342
34.6261607196 196.374715772 333
34.6261607196 196.374715772 324
34.6261607196 196.374715772 315
34.6261607196 196.374715772 306
34.6261607196 196.374715772 297
34.6261607196 196.374715772 288
34.6261607196 196.374715772 279
34.6261607196 196.374715772 270
34.6261607196 196.374715772 261
34.6261607196 196.374715772 252
34.6261607196 196.374715772 243
34.6261607196 196.374715772 234
34.6261607196 196.374715772 225
34.6261607196 196.374715772 216
34.6261607196 196.374715772 207
34.6261607196 196.374715772 198
34.6261607196 196.374715772 189
34.6261607196 196.374715772 180
34.6261607196 196.374715772 171
34.6261607196 196.374715772 162
34.6261607196 196.374715772 153
34.6261607196 196.374715772 144
34.6261607196 196.374715772 135
34.6261607196 196.374715772 126
34.6261607196 196.374715772 117
34.6261607196 196.374715772 108
34.6261607196 196.374715772 99
34.6261607196 196.374715772 90
34.6261607196 196.374715772 81
34.6261607196 196.374715772 72
34.6261607196 196.374715772 63
34.6261607196 196.374715772 54
34.6261607196 196.374715772 45
34.6261607196 196.374715772 36
3.37722861935e-15 55.1543289331 585
4.06999346434e-15 66.4680374322 576
4.67616270371e-15 76.3675323689 567
5.36892754871e-15 87.6812408679 558
6.0616923937e-15 98.994949367 549
6.66786163308e-15 108.894444304 540
7.36062647807e-15 120.208152803 531
8.05339132306e-15 131.521861302 522
8.65956056244e-15 141.421356239 513
9.09253859056e-15 148.492424051 504
9.09253859056e-15 148.492424051 495
9.09253859056e-15 148.492424051 486
9.09253859056e-15 148.492424051 477
9.09253859056e-15 148.492424051 468
9.09253859056e-15 148.492424051 459
9.09253859056e-15 148.492424051 450
9.09253859056e-15 148.492424051 441
9.09253859056e-15 148.492424051 432
9.00594298493e-15 147.078210488 423
1.2209980393e-14 199.404112296 414
1.2209980393e-14 199.404112296 405
1.2209980393e-14 199.404112296 396
1.2209980393e-14 199.404112296 387
1.2209980393e-14 199.404112296 378
1.2209980393e-14 199.404112296 369
1.2209980393e-14 199.404112296 360
1.2209980393e-14 199.404112296 351
1.2209980393e-14 199.404112296 342
1.2209980393e-14 199.404112296 333
1.2209980393e-14 199.404112296 324
1.2209980393e-14 199.404112296 315
1.2209980393e-14 199.404112296 306
1.2209980393e-14 199.404112296 297
1.2209980393e-14 199.404112296 288
1.2209980393e-14 199.404112296 279
1.2209980393e-14 199.404112296 270
1.2209980393e-14 199.404112296 261
1.2209980393e-14 199.404112296 252
1.2209980393e-14 199.404112296 243
1.2209980393e-14 199.404112296 234
1.2209980393e-14 199.404112296 225
1.2209980393e-14 199.404112296 216
1.2209980393e-14 199.404112296 207
1.2209980393e-14 199.404112296 198
1.2209980393e-14 199.404112296 189
1.2209980393e-14 199.404112296 180
1.2209980393e-14 199.404112296 171
1.2209980393e-14 199.404112296 162
1.2209980393e-14 199.404112296 153
1.2209980393e-14 199.404112296 144
1.2209980393e-14 199.404112296 135
1.2209980393e-14 199.404112296 126
1.2209980393e-14 199.404112296 117
1.2209980393e-14 199.404112296 108
1.2209980393e-14 199.404112296 99
1.2209980393e-14 199.404112296 90
1.2209980393e-14 199.404112296 81
1.2209980393e-14 199.404112296 72
1.2209980393e-14 199.404112296 63
1.2209980393e-14 199.404112296 54
1.2209980393e-14 199.404112296 45
1.2209980393e-14 199.404112296 36
-9.57744870967 54.3164107455 585
-11.5420535732 65.4582385907 576
-13.2610828288 75.2073379553 567
-15.2256876923 86.3491658005 558
-17.1902925558 97.4909936457 549
-18.9093218114 107.24009301 540
-20.8739266749 118.381920855 531
-22.8385315384 129.523748701 522
-24.557560794 139.272848065 513
-25.7854388337 146.236490469 504
-25.7854388337 146.236490469 495
-25.7854388337 146.236490469 486
-25.7854388337 146.236490469 477
-25.7854388337 146.236490469 468
-25.7854388337 146.236490469 459
-25.7854388337 146.236490469 450
-25.7854388337 146.236490469 441
-25.7854388337 146.236490469 432
-25.5398632258 144.843761988 423
-34.6261607196 196.374715772 414
-34.6261607196 196.374715772 405
-34.6261607196 196.374715772 396
-34.6261607196 196.374715772 387
-34.6261607196 196.374715772 378
-34.6261607196 196.374715772 369
-34.6261607196 196.374715772 360
-34.6261607196 196.374715772 351
-34.6261607196 196.374715772 342
-34.6261607196 196.374715772 333
-34.6261607196 196.374715772 324
-34.6261607196 196.374715772 315
-34.6261607196 196.374715772 306
-34.6261607196 196.374715772 297
-34.6261607196 196.374715772 288
-34.6261607196 196.374715772 279
-34.6261607196 196.374715772 270
-34.6261607196 196.374715772 261
-34.6261607196 196.374715772 252
-34.6261607196 196.374715772 243
-34.6261607196 196.374715772 234
-34.6261607196 196.374715772 225
-34.6261607196 196.374715772 216
-34.6261607196 196.374715772 207
-34.6261607196 196.374715772 198
-34.6261607196 196.374715772 189
-34.6261607196 196.374715772 180
-34.6261607196 196.374715772 171
-34.6261607196 196.374715772 162
-34.6261607196 196.374715772 153
-34.6261607196 196.374715772 144
-34.6261607196 196.374715772 135
-34.6261607196 196.374715772 126
-34.6261607196 196.374715772 117
-34.6261607196 196.374715772 108
-34.6261607196 196.374715772 99
-34.6261607196 196.374715772 90
-34.6261607196 196.374715772 81
-34.6261607196 196.374715772 72
-34.6261607196 196.374715772 63
-34.6261607196 196.374715772 54
-34.6261607196 196.374715772 45
-34.6261607196 196.374715772 36
-18.8638914867 51.8281159028 585
-22.7334076891 62.4595242931 576
-26.1192343662 71.7620066346 567
-29.9887505686 82.393415025 558
-33.858266771 93.0248234153 549
-37.2440934481 102.327305757 540
-41.1136096505 112.958714147 531
-44.9831258529 123.590122537 522
-48.36895253 132.892604879 513
-50.7874001565 139.537235123 504
-50.7874001565 139.537235123 495
-50.7874001565 139.537235123 486
-50.7874001565 139.537235123 477
-50.7874001565 139.537235123 468
-50.7874001565 139.537235123 459
-50.7874001565 139.537235123 450
-50.7874001565 139.537235123 441
-50.7874001565 139.537235123 432
-50.3037106312 138.208309074 423
-68.2002230674 187.378572879 414
-68.2002230674 187.378572879 405
-68.2002230674 187.378572879 396
-68.2002230674 187.378572879 387
-68.2002230674 187.378572879 378
-68.2002230674 187.378572879 369
-68.2002230674 187.378572879 360
-68.2002230674 187.378572879 351
-68.2002230674 187.378572879 342
-68.2002230674 187.378572879 333
-68.2002230674 187.378572879 324
-68.2002230674 187.378572879 315
-68.2002230674 187.378572879 306
-68.2002230674 187.378572879 297
-68.2002230674 187.378572879 288
-68.2002230674 187.378572879 279
-68.2002230674 187.378572879 270
-68.2002230674 187.378572879 261
-68.2002230674 187.378572879 252
-68.2002230674 187.378572879 243
-68.2002230674 187.378572879 234
-68.2002230674 187.378572879 225
-68.2002230674 187.378572879 216
-68.2002230674 187.378572879 207
-68.2002230674 187.378572879 198
-68.2002230674 187.378572879 189
-68.2002230674 187.378572879 180
-68.2002230674 187.378572879 171
-68.2002230674 187.378572879 162
-68.2002230674 187.378572879 153
-68.2002230674 187.378572879 144
-68.2002230674 187.378572879 135
-68.2002230674 187.378572879 126
-68.2002230674 187.378572879 117
-68.2002230674 187.378572879 108
-68.2002230674 187.378572879 99
-68.2002230674 187.378572879 90
-68.2002230674 187.378572879 81
-68.2002230674 187.378572879 72
-68.2002230674 187.378572879 63
-68.2002230674 187.378572879 54
-68.2002230674 187.378572879 45
-68.2002230674 187.378572879 36
-27.5771644665 47.7650499847 585
-33.2340187161 57.5630089559 576
-38.1837661844 66.1362230558 567
-43.840620434 75.934182027 558
-49.4974746835 85.7321409982 549
-54.4472221519 94.305355098 540
-60.1040764014 104.103314069 531
-65.760930651 113.90127304 522
-70.7106781193 122.47448714 513
-74.2462120253 128.598211497 504
-74.2462120253 128.598211497 495
-74.2462120253 128.598211497 486
-74.2462120253 128.598211497 477
-74.2462120253 128.598211497 468
-74.2462120253 128.598211497 459
-74.2462120253 128.598211497 450
-74.2462120253 128.598211497 441
-74.2462120253 128.598211497 432
-73.5391052441 127.373466626 423
-99.7020561482 172.689026868 414
-99.7020561482 172.689026868 405
-99.7020561482 172.689026868 396
-99.7020561482 172.689026868 387
-99.7020561482 172.689026868 378
-99.7020561482 172.689026868 369
-99.7020561482 172.689026868 360
-99.7020561482 172.689026868 351
-99.7020561482 172.689026868 342
-99.7020561482 172.689026868 333
-99.7020561482 172.689026868 324
-99.7020561482 172.689026868 315
-99.7020561482 172.689026868 306
-99.7020561482 172.689026868 297
-99.7020561482 172.689026868 288
-99.7020561482 172.689026868 279
-99.7020561482 172.689026868 270
-99.7020561482 172.689026868 261
-99.7020561482 172.689026868 252
-99.7020561482 172.689026868 243
-99.7020561482 172.689026868 234
-99.7020561482 172.689026868 225
-99.7020561482 172.689026868 216
-99.7020561482 172.689026868 207
-99.7020561482 172.689026868 198
-99.7020561482 172.689026868 189
-99.7020561482 172.689026868 180
-99.7020561482 172.689026868 171
-99.7020561482 172.689026868 162
-99.7020561482 172.689026868 153
-99.7020561482 172.689026868 144
-99.7020561482 172.689026868 135
-99.7020561482 172.689026868 126
-99.7020561482 172.689026868 117
-99.7020561482 172.689026868 108
-99.7020561482 172.689026868 99
-99.7020561482 172.689026868 90
-99.7020561482 172.689026868 81
-99.7020561482 172.689026868 72
-99.7020561482 172.689026868 63
-99.7020561482 172.689026868 54
-99.7020561482 172.689026868 45
-99.7020561482 172.689026868 36
-35.4525192587 42.2506671931 585
-42.7248309016 50.9174707199 576
-49.088103589 58.5009238059 567
-56.3604152319 67.1677273327 558
-63.6327268747 75.8345308595 549
-69.9959995621 83.4179839454 540
-77.268311205 92.0847874722 531
-84.5406228478 100.751590999 522
-90.9038955353 108.335044085 513
-95.449090312 113.751796289 504
-95.449090312 113.751796289 495
-95.449090312 113.751796289 486
-95.449090312 113.751796289 477
-95.449090312 113.751796289 468
-95.449090312 113.751796289 459
-95.449090312 113.751796289 450
-95.449090312 113.751796289 441
-95.449090312 113.751796289 432
-94.5400513567 112.668445848 423
-128.174492705 152.75241216 414
-128.174492705 152.75241216 405
-128.174492705 152.75241216 396
-128.174492705 152.75241216 387
-128.174492705 152.75241216 378
-128.174492705 152.75241216 369
-128.174492705 152.75241216 360
-128.174492705 152.75241216 351
-128.174492705 152.75241216 342
-128.174492705 152.75241216 333
-128.174492705 152.75241216 324
-128.174492705 152.75241216 315
-128.174492705 152.75241216 306
-128.174492705 152.75241216 297
-128.174492705 152.75241216 288
-128.174492705 152.75241216 279
-128.174492705 152.75241216 270
-128.174492705 152.75241216 261
-128.174492705 152.75241216 252
-128.174492705 152.75241216 243
-128.174492705 152.75241216 234
-128.174492705 152.75241216 225
-128.174492705 152.75241216 216
-128.174492705 152.75241216 207
-128.174492705 152.75241216 198
-128.174492705 152.75241216 189
-128.174492705 152.75241216 180
-128.174492705 152.75241216 171
-128.174492705 152.75241216 162
-128.174492705 152.75241216 153
-128.174492705 152.75241216 144
-128.174492705 152.75241216 135
-128.174492705 152.75241216 126
-128.174492705 152.75241216 117
-128.174492705 152.75241216 108
-128.174492705 152.75241216 99
-128.174492705 152.75241216 90
-128.174492705 152.75241216 81
-128.174492705 152.75241216 72
-128.174492705 152.75241216 63
-128.174492705 152.75241216 54
-128.174492705 152.75241216 45
-128.174492705 152.75241216 36
-42.2506671931 35.4525192587 585
-50.9174707199 42.7248309016 576
-58.5009238059 49.088103589 567
-67.1677273327 56.3604152319 558
-75.8345308595 63.6327268747 549
-83.4179839454 69.9959995621 540
-92.0847874722 77.268311205 531
-100.751590999 84.5406228478 522
-108.335044085 90.9038955353 513
-113.751796289 95.449090312 504
-113.751796289 95.449090312 495
-113.751796289 95.449090312 486
-113.751796289 95.449090312 477
-113.751796289 95.449090312 468
-113.751796289 95.449090312 459
-113.751796289 95.449090312 450
-113.751796289 95.449090312 441
-113.751796289 95.449090312 432
-112.668445848 94.5400513567 423
-152.75241216 128.174492705 414
-152.75241216 128.174492705 405
-152.75241216 128.174492705 396
-152.75241216 128.174492705 387
-152.75241216 128.174492705 378
-152.75241216 128.174492705 369
-152.75241216 128.174492705 360
-152.75241216 128.174492705 351
-152.75241216 128.174492705 342
-152.75241216 128.174492705 333
-152.75241216 128.174492705 324
-152.75241216 128.174492705 315
-152.75241216 128.174492705 306
-152.75241216 128.174492705 297
-152.75241216 128.174492705 288
-152.75241216 128.174492705 279
-152.75241216 128.174492705 270
-152.75241216 128.174492705 261
-152.75241216 128.174492705 252
-152.75241216 128.174492705 243
-152.75241216 128.174492705 234
-152.75241216 128.174492705 225
-152.75241216 128.174492705 216
-152.75241216 128.174492705 207
-152.75241216 128.174492705 198
-152.75241216 128.174492705 189
-152.75241216 128.174492705 180
-152.75241216 128.174492705 171
-152.75241216 128.174492705 162
-152.75241216 128.174492705 153
-152.75241216 128.174492705 144
-152.75241216 128.174492705 135
-152.75241216 128.174492705 126
-152.75241216 128.174492705 117
-152.75241216 128.174492705 108
-152.75241216 128.174492705 99
-152.75241216 128.174492705 90
-152.75241216 128.174492705 81
-152.75241216 128.174492705 72
-152.75241216 128.174492705 63
-152.75241216 128.174492705 54
-152.75241216 128.174492705 45
-152.75241216 128.174492705 36
-47.7650499847 27.5771644665 585
-57.5630089559 33.2340187161 576
-66.1362230558 38.1837661844 567
-75.934182027 43.840620434 558
-85.7321409982 49.4974746835 549
-94.305355098 54.4472221519 540
-104.103314069 60.1040764014 531
-113.90127304 65.760930651 522
-122.47448714 70.7106781193 513
-128.598211497 74.2462120253 504
-128.598211497 74.2462120253 495
-128.598211497 74.2462120253 486
-128.598211497 74.2462120253 477
-128.598211497 74.2462120253 468
-128.598211497 74.2462120253 459
-128.598211497 74.2462120253 450
-128.598211497 74.2462120253 441
-128.598211497 74.2462120253 432
-127.373466626 73.5391052441 423
-172.689026868 99.7020561482 414
-172.689026868 99.7020561482 405
-172.689026868 99.7020561482 396
-172.689026868 99.7020561482 387
-172.689026868 99.7020561482 378
-172.689026868 99.7020561482 369
-172.689026868 99.7020561482 360
-172.689026868 99.7020561482 351
-172.689026868 99.7020561482 342
-172.689026868 99.7020561482 333
-172.689026868 99.7020561482 324
-172.689026868 99.7020561482 315
-172.689026868 99.7020561482 306
-172.689026868 99.7020561482 297
-172.689026868 99.7020561482 288
-172.689026868 99.7020561482 279
-172.689026868 99.7020561482 270
-172.689026868 99.7020561482 261
-172.689026868 99.7020561482 252
-172.689026868 99.7020561482 243
-172.689026868 99.7020561482 234
-172.689026868 99.7020561482 225
-172.689026868 99.7020561482 216
-172.689026868 99.7020561482 207
-172.689026868 99.7020561482 198
-172.689026868 99.7020561482 189
-172.689026868 99.7020561482 180
-172.689026868 99.7020561482 171
-172.689026868 99.7020561482 162
-172.689026868 99.7020561482 153
-172.689026868 99.7020561482 144
-172.689026868 99.7020561482 135
-172.689026868 99.7020561482 126
-172.689026868 99.7020561482 117
-172.689026868 99.7020561482 108
-172.689026868 99.7020561482 99
-172.689026868 99.7020561482 90
-172.689026868 99.7020561482 81
-172.689026868 99.7020561482 72
-172.689026868 99.7020561482 63
-172.689026868 99.7020561482 54
-172.689026868 99.7020561482 45
-172.689026868 99.7020561482 36
-51.8281159028 18.8638914867 585
-62.4595242931 22.7334076891 576
-71.7620066346 26.1192343662 567
-82.393415025 29.9887505686 558
-93.0248234153 33.858266771 549
-102.327305757 37.2440934481 540
-112.958714147 41.1136096505 531
-123.590122537 44.9831258529 522
-132.892604879 48.36895253 513
-139.537235123 50.7874001565 504
-139.537235123 50.7874001565 495
-139.537235123 50.7874001565 486
-139.537235123 50.7874001565 477
-139.537235123 50.7874001565 468
-139.537235123 50.7874001565 459
-139.537235123 50.7874001565 450
-139.537235123 50.7874001565 441
-139.537235123 50.7874001565 432
-138.208309074 50.3037106312 423
-187.378572879 68.2002230674 414
-187.378572879 68.2002230674 405
-187.378572879 68.2002230674 396
-187.378572879 68.2002230674 387
-187.378572879 68.2002230674 378
-187.378572879 68.2002230674 369
-187.378572879 68.2002230674 360
-187.378572879 68.2002230674 351
-187.378572879 68.2002230674 342
-187.378572879 68.2002230674 333
-187.378572879 68.2002230674 324
-187.378572879 68.2002230674 315
-187.378572879 68.2002230674 306
-187.378572879 68.2002230674 297
-187.378572879 68.2002230674 288
-187.378572879 68.2002230674 279
-187.378572879 68.2002230674 270
-187.378572879 68.2002230674 261
-187.378572879 68.2002230674 252
-187.378572879 68.2002230674 243
-187.378572879 68.2002230674 234
-187.378572879 68.2002230674 225
-187.378572879 68.2002230674 216
-187.378572879 68.2002230674 207
-187.378572879 68.2002230674 198
-187.378572879 68.2002230674 189
-187.378572879 68.2002230674 180
-187.378572879 68.2002230674 171
-187.378572879 68.2002230674 162
-187.378572879 68.2002230674 153
-187.378572879 68.2002230674 144
-187.378572879 68.2002230674 135
-187.378572879 68.2002230674 126
-187.378572879 68.2002230674 117
-187.378572879 68.2002230674 108
-187.378572879 68.2002230674 99
-187.378572879 68.2002230674 90
-187.378572879 68.2002230674 81
-187.378572879 68.2002230674 72
-187.378572879 68.2002230674 63
-187.378572879 68.2002230674 54
-187.378572879 68.2002230674 45
-187.378572879 68.2002230674 36
-54.3164107455 9.57744870967 585
-65.4582385907 11.5420535732 576
-75.2073379553 13.2610828288 567
-86.3491658005 15.2256876923 558
-97.4909936457 17.1902925558 549
-107.24009301 18.9093218114 540
-118.381920855 20.8739266749 531
-129.523748701 22.8385315384 522
-139.272848065 24.557560794 513
-146.236490469 25.7854388337 504
-146.236490469 25.7854388337 495
-146.236490469 25.7854388337 486
-146.236490469 25.7854388337 477
-146.236490469 25.7854388337 468
-146.236490469 25.7854388337 459
-146.236490469 25.7854388337 450
-146.236490469 25.7854388337 441
-146.236490469 25.7854388337 432
-144.843761988 25.5398632258 423
-196.374715772 34.6261607196 414
-196.374715772 34.6261607196 405
-196.374715772 34.6261607196 396
-196.374715772 34.6261607196 387
-196.374715772 34.6261607196 378
-196.374715772 34.6261607196 369
-196.374715772 34.6261607196 360
-196.374715772 34.6261607196 351
-196.374715772 34.6261607196 342
-196.374715772 34.6261607196 333
-196.374715772 34.6261607196 324
-196.374715772 34.6261607196 315
-196.374715772 34.6261607196 306
-196.374715772 34.6261607196 297
-196.374715772 34.6261607196 288
-196.374715772 34.6261607196 279
-196.374715772 34.6261607196 270
-196.374715772 34.6261607196 261
-196.374715772 34.6261607196 252
-196.374715772 34.6261607196 243
-196.374715772 34.6261607196 234
-196.374715772 34.6261607196 225
-196.374715772 34.6261607196 216
-196.374715772 34.6261607196 207
-196.374715772 34.6261607196 198
-196.374715772 34.6261607196 189
-196.374715772 34.6261607196 180
-196.374715772 34.6261607196 171
-196.374715772 34.6261607196 162
-196.374715772 34.6261607196 153
-196.374715772 34.6261607196 144
-196.374715772 34.6261607196 135
-196.374715772 34.6261607196 126
-196.374715772 34.6261607196 117
-196.374715772 34.6261607196 108
-196.374715772 34.6261607196 99
-196.374715772 34.6261607196 90
-196.374715772 34.6261607196 81
-196.374715772 34.6261607196 72
-196.374715772 34.6261607196 63
-196.374715772 34.6261607196 54
-196.374715772 34.6261607196 45
-196.374715772 34.6261607196 36
-55.1543289331 6.7544572387e-15 585
-66.4680374322 8.13998692869e-15 576
-76.3675323689 9.35232540743e-15 567
-87.6812408679 1.07378550974e-14 558
-98.994949367 1.21233847874e-14 549
-108.894444304 1.33357232662e-14 540
-120.208152803 1.47212529561e-14 531
-131.521861302 1.61067826461e-14 522
-141.421356239 1.73191211249e-14 513
-148.492424051 1.81850771811e-14 504
-148.492424051 1.81850771811e-14 495
-148.492424051 1.81850771811e-14 486
-148.492424051 1.81850771811e-14 477
-148.492424051 1.81850771811e-14 468
-148.492424051 1.81850771811e-14 459
-148.492424051 1.81850771811e-14 450
-148.492424051 1.81850771811e-14 441
-148.492424051 1.81850771811e-14 432
-147.078210488 1.80118859699e-14 423
-199.404112296 2.44199607861e-14 414
-199.404112296 2.44199607861e-14 405
-199.404112296 2.44199607861e-14 396
-199.404112296 2.44199607861e-14 387
-199.404112296 2.44199607861e-14 378
-199.404112296 2.44199607861e-14 369
-199.404112296 2.44199607861e-14 360
-199.404112296 2.44199607861e-14 351
-199.404112296 2.44199607861e-14 342
-199.404112296 2.44199607861e-14 333
-199.404112296 2.44199607861e-14 324
-199.404112296 2.44199607861e-14 315
-199.404112296 2.44199607861e-14 306
-199.404112296 2.44199607861e-14 297
-199.404112296 2.44199607861e-14 288
-199.404112296 2.44199607861e-14 279
-199.404112296 2.44199607861e-14 270
-199.404112296 2.44199607861e-14 261
-199.404112296 2.44199607861e-14 252
-199.404112296 2.44199607861e-14 243
-199.404112296 2.44199607861e-14 234
-199.404112296 2.44199607861e-14 225
-199.404112296 2.44199607861e-14 216
-199.404112296 2.44199607861e-14 207
-199.404112296 2.44199607861e-14 198
-199.404112296 2.44199607861e-14 189
-199.404112296 2.44199607861e-14 180
-199.404112296 2.44199607861e-14 171
-199.404112296 2.44199607861e-14 162
-199.404112296 2.44199607861e-14 153
-199.404112296 2.44199607861e-14 144
-199.404112296 2.44199607861e-14 135
-199.404112296 2.44199607861e-14 126
-199.404112296 2.44199607861e-14 117
-199.404112296 2.44199607861e-14 108
-199.404112296 2.44199607861e-14 99
-199.404112296 2.44199607861e-14 90
-199.404112296 2.44199607861e-14 81
-199.404112296 2.44199607861e-14 72
-199.404112296 2.44199607861e-14 63
-199.404112296 2.44199607861e-14 54
-199.404112296 2.44199607861e-14 45
-199.404112296 2.44199607861e-14 36
-54.3164107455 -9.57744870967 585
-65.4582385907 -11.5420535732 576
-75.2073379553 -13.2610828288 567
-86.3491658005 -15.2256876923 558
-97.4909936457 -17.1902925558 549
-107.24009301 -18.9093218114 540
-118.381920855 -20.8739266749 531
-129.523748701 -22.8385315384 522
-139.272848065 -24.557560794 513
-146.236490469 -25.7854388337 504
-146.236490469 -25.7854388337 495
-146.236490469 -25.7854388337 486
-146.236490469 -25.7854388337 477
-146.236490469 -25.7854388337 468
-146.236490469 -25.7854388337 459
-146.236490469 -25.7854388337 450
-146.236490469 -25.7854388337 441
-146.236490469 -25.7854388337 432
-144.843761988 -25.5398632258 423
-196.374715772 -34.6261607196 414
-196.374715772 -34.6261607196 405
-196.374715772 -34.6261607196 396
-196.374715772 -34.6261607196 387
-196.374715772 -34.6261607196 378
-196.374715772 -34.6261607196 369
-196.374715772 -34.6261607196 360
-196.374715772 -34.6261607196 351
-196.374715772 -34.6261607196 342
-196.374715772 -34.6261607196 333
-196.374715772 -34.6261607196 324
-196.374715772 -34.6261607196 315
-196.374715772 -34.6261607196 306
-196.374715772 -34.6261607196 297
-196.374715772 -34.6261607196 288
-196.374715772 -34.6261607196 279
-196.374715772 -34.6261607196 270
-196.374715772 -34.6261607196 261
-196.374715772 -34.6261607196 252
-196.374715772 -34.6261607196 243
-196.374715772 -34.6261607196 234
-196.374715772 -34.6261607196 225
-196.374715772 -34.6261607196 216
-196.374715772 -34.6261607196 207
-196.374715772 -34.6261607196 198
-196.374715772 -34.6261607196 189
-196.374715772 -34.6261607196 180
-196.374715772 -34.6261607196 171
-196.374715772 -34.6261607196 162
-196.374715772 -34.6261607196 153
-196.374715772 -34.6261607196 144
-196.374715772 -34.6261607196 135
-196.374715772 -34.6261607196 126
-196.374715772 -34.6261607196 117
-196.374715772 -34.6261607196 108
-196.374715772 -34.6261607196 99
-196.374715772 -34.6261607196 90
-196.374715772 -34.6261607196 81
-196.374715772 -34.6261607196 72
-196.374715772 -34.6261607196 63
-196.374715772 -34.6261607196 54
-196.374715772 -34.6261607196 45
-196.374715772 -34.6261607196 36
-51.8281159028 -18.8638914867 585
-62.4595242931 -22.7334076891 576
-71.7620066346 -26.1192343662 567
-82.393415025 -29.9887505686 558
-93.0248234153 -33.858266771 549
-102.327305757 -37.2440934481 540
-112.958714147 -41.1136096505 531
-123.590122537 -44.9831258529 522
-132.892604879 -48.36895253 513
-139.537235123 -50.7874001565 504
-139.537235123 -50.7874001565 495
-139.537235123 -50.7874001565 486
-139.537235123 -50.7874001565 477
-139.537235123 -50.7874001565 468
-139.537235123 -50.7874001565 459
-139.537235123 -50.7874001565 450
-139.537235123 -50.7874001565 441
-139.537235123 -50.7874001565 432
-138.208309074 -50.3037106312 423
-187.378572879 -68.2002230674 414
-187.378572879 -68.2002230674 405
-187.378572879 -68.2002230674 396
-187.378572879 -68.2002230674 387
-187.378572879 -68.2002230674 378
-187.378572879 -68.2002230674 369
-187.378572879 -68.2002230674 360
-187.378572879 -68.2002230674 351
-187.378572879 -68.2002230674 342
-187.378572879 -68.2002230674 333
-187.378572879 -68.2002230674 324
-187.378572879 -68.2002230674 315
-187.378572879 -68.2002230674 306
-187.378572879 -68.2002230674 297
-187.378572879 -68.2002230674 288
-187.378572879 -68.2002230674 279
-187.378572879 -68.2002230674 270
-187.378572879 -68.2002230674 261
-187.378572879 -68.2002230674 252
-187.378572879 -68.2002230674 243
-187.378572879 -68.2002230674 234
-187.378572879 -68.2002230674 225
-187.378572879 -68.2002230674 216
-187.378572879 -68.2002230674 207
-187.378572879 -68.2002230674 198
-187.378572879 -68.2002230674 189
-187.378572879 -68.2002230674 180
-187.378572879 -68.2002230674 171
-187.378572879 -68.2002230674 162
-187.378572879 -68.2002230674 153
-187.378572879 -68.2002230674 144
-187.378572879 -68.2002230674 135
-187.378572879 -68.2002230674 126
-187.378572879 -68.2002230674 117
-187.378572879 -68.2002230674 108
-187.378572879 -68.2002230674 99
-187.378572879 -68.2002230674 90
-187.378572879 -68.2002230674 81
-187.378572879 -68.2002230674 72
-187.378572879 -68.2002230674 63
-187.378572879 -68.2002230674 54
-187.378572879 -68.2002230674 45
-187.378572879 -68.2002230674 36
-47.7650499847 -27.5771644665 585
-57.5630089559 -33.2340187161 576
-66.1362230558 -38.1837661844 567
-75.934182027 -43.840620434 558
-85.7321409982 -49.4974746835 549
-94.305355098 -54.4472221519 540
-104.103314069 -60.1040764014 531
-113.90127304 -65.760930651 522
-122.47448714 -70.7106781193 513
-128.598211497 -74.2462120253 504
-128.598211497 -74.2462120253 495
-128.598211497 -74.2462120253 486
-128.598211497 -74.2462120253 477
-128.598211497 -74.2462120253 468
-128.598211497 -74.2462120253 459
-128.598211497 -74.2462120253 450
-128.598211497 -74.2462120253 441
-128.598211497 -74.2462120253 432
-127.373466626 -73.5391052441 423
-172.689026868 -99.7020561482 414
-172.689026868 -99.7020561482 405
-172.689026868 -99.7020561482 396
-172.689026868 -99.7020561482 387
-172.689026868 -99.7020561482 378
-172.689026868 -99.7020561482 369
-172.689026868 -99.7020561482 360
-172.689026868 -99.7020561482 351
-172.689026868 -99.7020561482 342
-172.689026868 -99.7020561482 333
-172.689026868 -99.7020561482 324
-172.689026868 -99.7020561482 315
-172.689026868 -99.7020561482 306
-172.689026868 -99.7020561482 297
-172.689026868 -99.7020561482 288
-172.689026868 -99.7020561482 279
-172.689026868 -99.7020561482 270
-172.689026868 -99.7020561482 261
-172.689026868 -99.7020561482 252
-172.689026868 -99.7020561482 243
-172.689026868 -99.7020561482 234
-172.689026868 -99.7020561482 225
-172.689026868 -99.7020561482 216
-172.689026868 -99.7020561482 207
-172.689026868 -99.7020561482 198
-172.689026868 -99.7020561482 189
-172.689026868 -99.7020561482 180
-172.689026868 -99.7020561482 171
-172.689026868 -99.7020561482 162
-172.689026868 -99.7020561482 153
-172.689026868 -99.7020561482 144
-172.689026868 -99.7020561482 135
-172.689026868 -99.7020561482 126
-172.689026868 -99.7020561482 117
-172.689026868 -99.7020561482 108
-172.689026868 -99.7020561482 99
-172.689026868 -99.7020561482 90
-172.689026868 -99.7020561482 81
-172.689026868 -99.7020561482 72
-172.689026868 -99.7020561482 63
-172.689026868 -99.7020561482 54
-172.689026868 -99.7020561482 45
-172.689026868 -99.7020561482 36
-42.2506671931 -35.4525192587 585
-50.9174707199 -42.7248309016 576
-58.5009238059 -49.088103589 567
-67.1677273327 -56.3604152319 558
-75.8345308595 -63.6327268747 549
-83.4179839454 -69.9959995621 540
-92.0847874722 -77.268311205 531
-100.751590999 -84.5406228478 522
-108.335044085 -90.9038955353 513
-113.751796289 -95.449090312 504
-113.751796289 -95.449090312 495
-113.751796289 -95.449090312 486
-113.751796289 -95.449090312 477
-113.751796289 -95.449090312 468
-113.751796289 -95.449090312 459
-113.751796289 -95.449090312 450
-113.751796289 -95.449090312 441
-113.751796289 -95.449090312 432
-112.668445848 -94.5400513567 423
-152.75241216 -128.174492705 414
-152.75241216 -128.174492705 405
-152.75241216 -128.174492705 396
-152.75241216 -128.174492705 387
-152.75241216 -128.174492705 378
-152.75241216 -128.174492705 369
-152.75241216 -128.174492705 360
-152.75241216 -128.174492705 351
-152.75241216 -128.174492705 342
-152.75241216 -128.174492705 333
-152.75241216 -128.174492705 324
-152.75241216 -128.174492705 315
-152.75241216 -128.174492705 306
-152.75241216 -128.174492705 297
-152.75241216 -128.174492705 288
-152.75241216 -128.174492705 279
-152.75241216 -128.174492705 270
-152.75241216 -128.174492705 261
-152.75241216 -128.174492705 252
-152.75241216 -128.174492705 243
-152.75241216 -128.174492705 234
-152.75241216 -128.174492705 225
-152.75241216 -128.174492705 216
-152.75241216 -128.174492705 207
-152.75241216 -128.174492705 198
-152.75241216 -128.174492705 189
-152.75241216 -128.174492705 180
-152.75241216 -128.174492705 171
-152.75241216 -128.174492705 162
-152.75241216 -128.174492705 153
-152.75241216 -128.174492705 144
-152.75241216 -128.174492705 135
-152.75241216 -128.174492705 126
-152.75241216 -128.174492705 117
-152.75241216 -128.174492705 108
-152.75241216 -128.174492705 99
-152.75241216 -128.174492705 90
-152.75241216 -128.174492705 81
-152.75241216 -128.174492705 72
-152.75241216 -128.174492705 63
-152.75241216 -128.174492705 54
-152.75241216 -128.174492705 45
-152.75241216 -128.174492705 36
-35.4525192587 -42.2506671931 585
-42.7248309016 -50.9174707199 576
-49.088103589 -58.5009238059 567
-56.3604152319 -67.1677273327 558
-63.6327268747 -75.8345308595 549
-69.9959995621 -83.4179839454 540
-77.268311205 -92.0847874722 531
-84.5406228478 -100.751590999 522
-90.9038955353 -108.335044085 513
-95.449090312 -113.751796289 504
-95.449090312 -113.751796289 495
-95.449090312 -113.751796289 486
-95.449090312 -113.751796289 477
-95.449090312 -113.751796289 468
-95.449090312 -113.751796289 459
-95.449090312 -113.751796289 450
-95.449090312 -113.751796289 441
-95.449090312 -113.751796289 432
-94.5400513567 -112.668445848 423
-128.174492705 -152.75241216 414
-128.174492705 -152.75241216 405
-128.174492705 -152.75241216 396
-128.174492705 -152.75241216 387
-128.174492705 -152.75241216 378
-128.174492705 -152.75241216 369
-128.174492705 -152.75241216 360
-128.174492705 -152.75241216 351
-128.174492705 -152.75241216 342
-128.174492705 -152.75241216 333
-128.174492705 -152.75241216 324
-128.174492705 -152.75241216 315
-128.174492705 -152.75241216 306
-128.174492705 -152.75241216 297
-128.174492705 -152.75241216 288
-128.174492705 -152.75241216 279
-128.174492705 -152.75241216 270
-128.174492705 -152.75241216 261
-128.174492705 -152.75241216 252
-128.174492705 -152.75241216 243
-128.174492705 -152.75241216 234
-128.174492705 -152.75241216 225
-128.174492705 -152.75241216 216
-128.174492705 -152.75241216 207
-128.174492705 -152.75241216 198
-128.174492705 -152.75241216 189
-128.174492705 -152.75241216 180
-128.174492705 -152.75241216 171
-128.174492705 -152.75241216 162
-128.174492705 -152.75241216 153
-128.174492705 -152.75241216 144
-128.174492705 -152.75241216 135
-128.174492705 -152.75241216 126
-128.174492705 -152.75241216 117
-128.174492705 -152.75241216 108
-128.174492705 -152.75241216 99
-128.174492705 -152.75241216 90
-128.174492705 -152.75241216 81
-128.174492705 -152.75241216 72
-128.174492705 -152.75241216 63
-128.174492705 -152.75241216 54
-128.174492705 -152.75241216 45
-128.174492705 -152.75241216 36
-27.5771644665 -47.7650499847 585
-33.2340187161 -57.5630089559 576
-38.1837661844 -66.1362230558 567
-43.840620434 -75.934182027 558
-49.4974746835 -85.7321409982 549
-54.4472221519 -94.305355098 540
-60.1040764014 -104.103314069 531
-65.760930651 -113.90127304 522
-70.7106781193 -122.47448714 513
-74.2462120253 -128.598211497 504
-74.2462120253 -128.598211497 495
-74.2462120253 -128.598211497 486
-74.2462120253 -128.598211497 477
-74.2462120253 -128.598211497 468
-74.2462120253 -128.598211497 459
-74.2462120253 -128.598211497 450
-74.2462120253 -128.598211497 441
-74.2462120253 -128.598211497 432
-73.5391052441 -127.373466626 423
-99.7020561482 -172.689026868 414
-99.7020561482 -172.689026868 405
-99.7020561482 -172.689026868 396
-99.7020561482 -172.689026868 387
-99.7020561482 -172.689026868 378
-99.7020561482 -172.689026868 369
-99.7020561482 -172.689026868 360
-99.7020561482 -172.689026868 351
-99.7020561482 -172.689026868 342
-99.7020561482 -172.689026868 333
-99.7020561482 -172.689026868 324
-99.7020561482 -172.689026868 315
-99.7020561482 -172.689026868 306
-99.7020561482 -172.689026868 297
-99.7020561482 -172.689026868 288
-99.7020561482 -172.689026868 279
-99.7020561482 -172.689026868 270
-99.7020561482 -172.689026868 261
-99.7020561482 -172.689026868 252
-99.7020561482 -172.689026868 243
-99.7020561482 -172.689026868 234
-99.7020561482 -172.689026868 225
-99.7020561482 -172.689026868 216
-99.7020561482 -172.689026868 207
-99.7020561482 -172.689026868 198
-99.7020561482 -172.689026868 189
