140.007142676 0.0 124
140.007142676 0.0 116
140.007142676 0.0 108
138.592929114 0.0 100
138.592929114 0.0 92
138.592929114 0.0 84
137.178715551 0.0 76
135.764501989 0.0 68
33.4254835357 5.89381459057 532
40.3891259389 7.12169263027 524
47.3527683422 8.34957066997 516
54.3164107455 9.57744870967 508
61.2800531487 10.8053267494 500
69.6364240326 12.278780397 492
76.6000664359 13.5066584367 484
83.5637088392 14.7345364764 476
90.5273512424 15.9624145161 468
97.4909936457 17.1902925558 460
105.84736453 18.6637462035 452
112.811006933 19.8916242432 444
112.811006933 19.8916242432 436
111.418278452 19.6460486352 428
111.418278452 19.6460486352 420
111.418278452 19.6460486352 412
110.025549972 19.4004730273 404
110.025549972 19.4004730273 396
110.025549972 19.4004730273 388
108.632821491 19.1548974193 380
108.632821491 19.1548974193 372
146.236490469 25.7854388337 364
151.807404391 26.7677412655 356
151.807404391 26.7677412655 348
150.414675911 26.5221656575 340
150.414675911 26.5221656575 332
150.414675911 26.5221656575 324
149.02194743 26.2765900496 316
149.02194743 26.2765900496 308
149.02194743 26.2765900496 300
147.629218949 26.0310144417 292
147.629218949 26.0310144417 284
147.629218949 26.0310144417 276
146.236490469 25.7854388337 268
146.236490469 25.7854388337 260
146.236490469 25.7854388337 252
144.843761988 25.5398632258 244
144.843761988 25.5398632258 236
144.843761988 25.5398632258 228
143.451033507 25.2942876178 220
143.451033507 25.2942876178 212
143.451033507 25.2942876178 204
142.058305027 25.0487120099 196
142.058305027 25.0487120099 188
142.058305027 25.0487120099 180
140.665576546 24.803136402 172
140.665576546 24.803136402 164
140.665576546 24.803136402 156
139.272848065 24.557560794 148
139.272848065 24.557560794 140
139.272848065 24.557560794 132
137.880119585 24.3119851861 124
137.880119585 24.3119851861 116
137.880119585 24.3119851861 108
136.487391104 24.0664095781 100
136.487391104 24.0664095781 92
136.487391104 24.0664095781 84
135.094662623 23.8208339702 76
133.701934143 23.5752583623 68
31.894225171 11.6085486072 532
38.5388554149 14.0269962337 524
45.1834856588 16.4454438602 516
51.8281159028 18.8638914867 508
58.4727461467 21.2823391132 500
66.4463024395 24.184476265 492
73.0909326834 26.6029238915 484
79.7355629274 29.021371518 476
86.3801931713 31.4398191445 468
93.0248234153 33.858266771 460
100.998379708 36.7604039228 452
107.643009952 39.1788515493 444
107.643009952 39.1788515493 436
106.314083903 38.695162024 428
106.314083903 38.695162024 420
106.314083903 38.695162024 412
104.985157854 38.2114724987 404
104.985157854 38.2114724987 396
104.985157854 38.2114724987 388
103.656231806 37.7277829734 380
103.656231806 37.7277829734 372
139.537235123 50.7874001565 364
144.852939318 52.7221582577 356
144.852939318 52.7221582577 348
143.524013269 52.2384687324 340
143.524013269 52.2384687324 332
143.524013269 52.2384687324 324
142.19508722 51.7547792071 316
142.19508722 51.7547792071 308
142.19508722 51.7547792071 300
140.866161172 51.2710896818 292
140.866161172 51.2710896818 284
140.866161172 51.2710896818 276
139.537235123 50.7874001565 268
139.537235123 50.7874001565 260
139.537235123 50.7874001565 252
138.208309074 50.3037106312 244
138.208309074 50.3037106312 236
138.208309074 50.3037106312 228
136.879383025 49.8200211059 220
136.879383025 49.8200211059 212
136.879383025 49.8200211059 204
135.550456977 49.3363315806 196
135.550456977 49.3363315806 188
135.550456977 49.3363315806 180
134.221530928 48.8526420553 172
134.221530928 48.8526420553 164
134.221530928 48.8526420553 156
132.892604879 48.36895253 148
132.892604879 48.36895253 140
132.892604879 48.36895253 132
131.56367883 47.8852630047 124
131.56367883 47.8852630047 116
131.56367883 47.8852630047 108
130.234752781 47.4015734794 100
130.234752781 47.4015734794 92
130.234752781 47.4015734794 84
128.905826733 46.9178839541 76
127.576900684 46.4341944288 68
29.3938769137 16.9705627486 532
35.5176012707 20.5060966546 524
41.6413256277 24.0416305606 516
47.7650499847 27.5771644665 508
53.8887743417 31.1126983725 500
61.2372435701 35.3553390597 492
67.3609679272 38.8908729656 484
73.4846922842 42.4264068716 476
79.6084166412 45.9619407776 468
85.7321409982 49.4974746835 460
93.0806102266 53.7401153707 452
99.2043345836 57.2756492766 444
99.2043345836 57.2756492766 436
97.9795897122 56.5685424954 428
97.9795897122 56.5685424954 420
97.9795897122 56.5685424954 412
96.7548448408 55.8614357143 404
96.7548448408 55.8614357143 396
96.7548448408 55.8614357143 388
95.5300999694 55.1543289331 380
95.5300999694 55.1543289331 372
128.598211497 74.2462120253 364
133.497190983 77.07463915 356
133.497190983 77.07463915 348
132.272446112 76.3675323689 340
132.272446112 76.3675323689 332
132.272446112 76.3675323689 324
131.04770124 75.6604255877 316
131.04770124 75.6604255877 308
131.04770124 75.6604255877 300
129.822956369 74.9533188065 292
129.822956369 74.9533188065 284
129.822956369 74.9533188065 276
128.598211497 74.2462120253 268
128.598211497 74.2462120253 260
128.598211497 74.2462120253 252
127.373466626 73.5391052441 244
127.373466626 73.5391052441 236
127.373466626 73.5391052441 228
126.148721755 72.8319984629 220
126.148721755 72.8319984629 212
126.148721755 72.8319984629 204
124.923976883 72.1248916817 196
124.923976883 72.1248916817 188
124.923976883 72.1248916817 180
123.699232012 71.4177849005 172
123.699232012 71.4177849005 164
123.699232012 71.4177849005 156
122.47448714 70.7106781193 148
122.47448714 70.7106781193 140
122.47448714 70.7106781193 132
121.249742269 70.0035713381 124
121.249742269 70.0035713381 116
121.249742269 70.0035713381 108
120.024997397 69.2964645569 100
120.024997397 69.2964645569 92
120.024997397 69.2964645569 84
118.800252526 68.5893577757 76
117.575507655 67.8822509945 68
26.0004105804 21.8169349285 532
31.4171627846 26.3621297052 524
36.8339149889 30.907324482 516
42.2506671931 35.4525192587 508
47.6674193974 39.9977140355 500
54.1675220425 45.4519477676 492
59.5842742467 49.9971425444 484
65.001026451 54.5423373212 476
70.4177786552 59.0875320979 468
75.8345308595 63.6327268747 460
82.3346335046 69.0869606068 452
87.7513857088 73.6321553836 444
87.7513857088 73.6321553836 436
86.668035268 72.7231164282 428
86.668035268 72.7231164282 420
86.668035268 72.7231164282 412
85.5846848271 71.8140774728 404
85.5846848271 71.8140774728 396
85.5846848271 71.8140774728 388
84.5013343863 70.9050385175 380
84.5013343863 70.9050385175 372
113.751796289 95.449090312 364
118.085198053 99.0852461334 356
118.085198053 99.0852461334 348
117.001847612 98.1762071781 340
117.001847612 98.1762071781 332
117.001847612 98.1762071781 324
115.918497171 97.2671682227 316
115.918497171 97.2671682227 308
115.918497171 97.2671682227 300
114.83514673 96.3581292674 292
114.83514673 96.3581292674 284
114.83514673 96.3581292674 276
113.751796289 95.449090312 268
113.751796289 95.449090312 260
113.751796289 95.449090312 252
112.668445848 94.5400513567 244
112.668445848 94.5400513567 236
112.668445848 94.5400513567 228
111.585095407 93.6310124013 220
111.585095407 93.6310124013 212
111.585095407 93.6310124013 204
110.501744967 92.721973446 196
110.501744967 92.721973446 188
110.501744967 92.721973446 180
109.418394526 91.8129344906 172
109.418394526 91.8129344906 164
109.418394526 91.8129344906 156
108.335044085 90.9038955353 148
108.335044085 90.9038955353 140
108.335044085 90.9038955353 132
107.251693644 89.9948565799 124
107.251693644 89.9948565799 116
107.251693644 89.9948565799 108
106.168343203 89.0858176245 100
106.168343203 89.0858176245 92
106.168343203 89.0858176245 84
105.084992762 88.1767786692 76
104.001642322 87.2677397138 68
21.8169349285 26.0004105804 532
26.3621297052 31.4171627846 524
30.907324482 36.8339149889 516
35.4525192587 42.2506671931 508
39.9977140355 47.6674193974 500
45.4519477676 54.1675220425 492
49.9971425444 59.5842742467 484
54.5423373212 65.001026451 476
59.0875320979 70.4177786552 468
63.6327268747 75.8345308595 460
69.0869606068 82.3346335046 452
73.6321553836 87.7513857088 444
73.6321553836 87.7513857088 436
72.7231164282 86.668035268 428
72.7231164282 86.668035268 420
72.7231164282 86.668035268 412
71.8140774728 85.5846848271 404
71.8140774728 85.5846848271 396
71.8140774728 85.5846848271 388
70.9050385175 84.5013343863 380
70.9050385175 84.5013343863 372
95.449090312 113.751796289 364
99.0852461334 118.085198053 356
99.0852461334 118.085198053 348
98.1762071781 117.001847612 340
98.1762071781 117.001847612 332
98.1762071781 117.001847612 324
97.2671682227 115.918497171 316
97.2671682227 115.918497171 308
97.2671682227 115.918497171 300
96.3581292674 114.83514673 292
96.3581292674 114.83514673 284
96.3581292674 114.83514673 276
95.449090312 113.751796289 268
95.449090312 113.751796289 260
95.449090312 113.751796289 252
94.5400513567 112.668445848 244
94.5400513567 112.668445848 236
94.5400513567 112.668445848 228
93.6310124013 111.585095407 220
93.6310124013 111.585095407 212
93.6310124013 111.585095407 204
92.721973446 110.501744967 196
92.721973446 110.501744967 188
92.721973446 110.501744967 180
91.8129344906 109.418394526 172
91.8129344906 109.418394526 164
91.8129344906 109.418394526 156
90.9038955353 108.335044085 148
90.9038955353 108.335044085 140
90.9038955353 108.335044085 132
89.9948565799 107.251693644 124
89.9948565799 107.251693644 116
89.9948565799 107.251693644 108
89.0858176245 106.168343203 100
89.0858176245 106.168343203 92
89.0858176245 106.168343203 84
88.1767786692 105.084992762 76
87.2677397138 104.001642322 68
16.9705627486 29.3938769137 532
20.5060966546 35.5176012707 524
24.0416305606 41.6413256277 516
27.5771644665 47.7650499847 508
31.1126983725 53.8887743417 500
35.3553390597 61.2372435701 492
38.8908729656 67.3609679272 484
42.4264068716 73.4846922842 476
45.9619407776 79.6084166412 468
49.4974746835 85.7321409982 460
53.7401153707 93.0806102266 452
57.2756492766 99.2043345836 444
57.2756492766 99.2043345836 436
56.5685424954 97.9795897122 428
56.5685424954 97.9795897122 420
56.5685424954 97.9795897122 412
55.8614357143 96.7548448408 404
55.8614357143 96.7548448408 396
55.8614357143 96.7548448408 388
55.1543289331 95.5300999694 380
55.1543289331 95.5300999694 372
74.2462120253 128.598211497 364
77.07463915 133.497190983 356
77.07463915 133.497190983 348
76.3675323689 132.272446112 340
76.3675323689 132.272446112 332
76.3675323689 132.272446112 324
75.6604255877 131.04770124 316
75.6604255877 131.04770124 308
75.6604255877 131.04770124 300
74.9533188065 129.822956369 292
74.9533188065 129.822956369 284
74.9533188065 129.822956369 276
74.2462120253 128.598211497 268
74.2462120253 128.598211497 260
74.2462120253 128.598211497 252
73.5391052441 127.373466626 244
73.5391052441 127.373466626 236
73.5391052441 127.373466626 228
72.8319984629 126.148721755 220
72.8319984629 126.148721755 212
72.8319984629 126.148721755 204
72.1248916817 124.923976883 196
72.1248916817 124.923976883 188
72.1248916817 124.923976883 180
71.4177849005 123.699232012 172
71.4177849005 123.699232012 164
71.4177849005 123.699232012 156
70.7106781193 122.47448714 148
70.7106781193 122.47448714 140
70.7106781193 122.47448714 132
70.0035713381 121.249742269 124
70.0035713381 121.249742269 116
70.0035713381 121.249742269 108
69.2964645569 120.024997397 100
69.2964645569 120.024997397 92
69.2964645569 120.024997397 84
68.5893577757 118.800252526 76
67.8822509945 117.575507655 68
11.6085486072 31.894225171 532
14.0269962337 38.5388554149 524
16.4454438602 45.1834856588 516
18.8638914867 51.8281159028 508
21.2823391132 58.4727461467 500
24.184476265 66.4463024395 492
26.6029238915 73.0909326834 484
29.021371518 79.7355629274 476
31.4398191445 86.3801931713 468
33.858266771 93.0248234153 460
36.7604039228 100.998379708 452
39.1788515493 107.643009952 444
39.1788515493 107.643009952 436
38.695162024 106.314083903 428
38.695162024 106.314083903 420
38.695162024 106.314083903 412
38.2114724987 104.985157854 404
38.2114724987 104.985157854 396
38.2114724987 104.985157854 388
37.7277829734 103.656231806 380
37.7277829734 103.656231806 372
50.7874001565 139.537235123 364
52.7221582577 144.852939318 356
52.7221582577 144.852939318 348
52.2384687324 143.524013269 340
52.2384687324 143.524013269 332
52.2384687324 143.524013269 324
51.7547792071 142.19508722 316
51.7547792071 142.19508722 308
51.7547792071 142.19508722 300
51.2710896818 140.866161172 292
51.2710896818 140.866161172 284
51.2710896818 140.866161172 276
50.7874001565 139.537235123 268
50.7874001565 139.537235123 260
50.7874001565 139.537235123 252
50.3037106312 138.208309074 244
50.3037106312 138.208309074 236
50.3037106312 138.208309074 228
49.8200211059 136.879383025 220
49.8200211059 136.879383025 212
49.8200211059 136.879383025 204
49.3363315806 135.550456977 196
49.3363315806 135.550456977 188
49.3363315806 135.550456977 180
48.8526420553 134.221530928 172
48.8526420553 134.221530928 164
48.8526420553 134.221530928 156
48.36895253 132.892604879 148
48.36895253 132.892604879 140
48.36895253 132.892604879 132
47.8852630047 131.56367883 124
47.8852630047 131.56367883 116
47.8852630047 131.56367883 108
47.4015734794 130.234752781 100
47.4015734794 130.234752781 92
47.4015734794 130.234752781 84
46.9178839541 128.905826733 76
46.4341944288 127.576900684 68
5.89381459057 33.4254835357 532
7.12169263027 40.3891259389 524
8.34957066997 47.3527683422 516
9.57744870967 54.3164107455 508
10.8053267494 61.2800531487 500
12.278780397 69.6364240326 492
13.5066584367 76.6000664359 484
14.7345364764 83.5637088392 476
15.9624145161 90.5273512424 468
17.1902925558 97.4909936457 460
18.6637462035 105.84736453 452
19.8916242432 112.811006933 444
19.8916242432 112.811006933 436
19.6460486352 111.418278452 428
19.6460486352 111.418278452 420
19.6460486352 111.418278452 412
19.4004730273 110.025549972 404
19.4004730273 110.025549972 396
19.4004730273 110.025549972 388
19.1548974193 108.632821491 380
19.1548974193 108.632821491 372
25.7854388337 146.236490469 364
26.7677412655 151.807404391 356
26.7677412655 151.807404391 348
26.5221656575 150.414675911 340
26.5221656575 150.414675911 332
26.5221656575 150.414675911 324
26.2765900496 149.02194743 316
26.2765900496 149.02194743 308
26.2765900496 149.02194743 300
26.0310144417 147.629218949 292
26.0310144417 147.629218949 284
26.0310144417 147.629218949 276
25.7854388337 146.236490469 268
25.7854388337 146.236490469 260
25.7854388337 146.236490469 252
25.5398632258 144.843761988 244
25.5398632258 144.843761988 236
25.5398632258 144.843761988 228
25.2942876178 143.451033507 220
25.2942876178 143.451033507 212
25.2942876178 143.451033507 204
25.0487120099 142.058305027 196
25.0487120099 142.058305027 188
25.0487120099 142.058305027 180
24.803136402 140.665576546 172
24.803136402 140.665576546 164
24.803136402 140.665576546 156
24.557560794 139.272848065 148
24.557560794 139.272848065 140
24.557560794 139.272848065 132
24.3119851861 137.880119585 124
24.3119851861 137.880119585 116
24.3119851861 137.880119585 108
24.0664095781 136.487391104 100
24.0664095781 136.487391104 92
24.0664095781 136.487391104 84
23.8208339702 135.094662623 76
23.5752583623 133.701934143 68
2.07829453498e-15 33.9411254973 532
2.51127256311e-15 41.0121933092 524
2.94425059123e-15 48.0832611211 516
3.37722861935e-15 55.1543289331 508
3.81020664747e-15 62.225396745 500
4.32978028122e-15 70.7106781193 492
4.76275830934e-15 77.7817459312 484
5.19573633746e-15 84.8528137432 476
5.62871436558e-15 91.9238815551 468
6.0616923937e-15 98.994949367 460
6.58126602745e-15 107.480230741 452
7.01424405557e-15 114.551298553 444
7.01424405557e-15 114.551298553 436
6.92764844995e-15 113.137084991 428
6.92764844995e-15 113.137084991 420
6.92764844995e-15 113.137084991 412
6.84105284432e-15 111.722871429 404
6.84105284432e-15 111.722871429 396
6.84105284432e-15 111.722871429 388
6.7544572387e-15 110.308657866 380
6.7544572387e-15 110.308657866 372
9.09253859056e-15 148.492424051 364
9.43892101305e-15 154.1492783 356
9.43892101305e-15 154.1492783 348
9.35232540743e-15 152.735064738 340
9.35232540743e-15 152.735064738 332
9.35232540743e-15 152.735064738 324
9.26572980181e-15 151.320851175 316
9.26572980181e-15 151.320851175 308
9.26572980181e-15 151.320851175 300
9.17913419618e-15 149.906637613 292
9.17913419618e-15 149.906637613 284
9.17913419618e-15 149.906637613 276
9.09253859056e-15 148.492424051 268
9.09253859056e-15 148.492424051 260
9.09253859056e-15 148.492424051 252
9.00594298493e-15 147.078210488 244
9.00594298493e-15 147.078210488 236
9.00594298493e-15 147.078210488 228
8.91934737931e-15 145.663996926 220
8.91934737931e-15 145.663996926 212
8.91934737931e-15 145.663996926 204
8.83275177368e-15 144.249783363 196
8.83275177368e-15 144.249783363 188
8.83275177368e-15 144.249783363 180
8.74615616806e-15 142.835569801 172
8.74615616806e-15 142.835569801 164
8.74615616806e-15 142.835569801 156
8.65956056244e-15 141.421356239 148
8.65956056244e-15 141.421356239 140
8.65956056244e-15 141.421356239 132
8.57296495681e-15 140.007142676 124
8.57296495681e-15 140.007142676 116
8.57296495681e-15 140.007142676 108
8.48636935119e-15 138.592929114 100
8.48636935119e-15 138.592929114 92
8.48636935119e-15 138.592929114 84
8.39977374556e-15 137.178715551 76
8.31317813994e-15 135.764501989 68
-5.89381459057 33.4254835357 532
-7.12169263027 40.3891259389 524
-8.34957066997 47.3527683422 516
-9.57744870967 54.3164107455 508
-10.8053267494 61.2800531487 500
-12.278780397 69.6364240326 492
-13.5066584367 76.6000664359 484
-14.7345364764 83.5637088392 476
-15.9624145161 90.5273512424 468
-17.1902925558 97.4909936457 460
-18.6637462035 105.84736453 452
-19.8916242432 112.811006933 444
-19.8916242432 112.811006933 436
-19.6460486352 111.418278452 428
-19.6460486352 111.418278452 420
-19.6460486352 111.418278452 412
-19.4004730273 110.025549972 404
-19.4004730273 110.025549972 396
-19.4004730273 110.025549972 388
-19.1548974193 108.632821491 380
-19.1548974193 108.632821491 372
-25.7854388337 146.236490469 364
-26.7677412655 151.807404391 356
-26.7677412655 151.807404391 348
-26.5221656575 150.414675911 340
-26.5221656575 150.414675911 332
-26.5221656575 150.414675911 324
-26.2765900496 149.02194743 316
-26.2765900496 149.02194743 308
-26.2765900496 149.02194743 300
-26.0310144417 147.629218949 292
-26.0310144417 147.629218949 284
-26.0310144417 147.629218949 276
-25.7854388337 146.236490469 268
-25.7854388337 146.236490469 260
-25.7854388337 146.236490469 252
-25.5398632258 144.843761988 244
-25.5398632258 144.843761988 236
-25.5398632258 144.843761988 228
-25.2942876178 143.451033507 220
-25.2942876178 143.451033507 212
-25.2942876178 143.451033507 204
-25.0487120099 142.058305027 196
-25.0487120099 142.058305027 188
-25.0487120099 142.058305027 180
-24.803136402 140.665576546 172
-24.803136402 140.665576546 164
-24.803136402 140.665576546 156
-24.557560794 139.272848065 148
-24.557560794 139.272848065 140
-24.557560794 139.272848065 132
-24.3119851861 137.880119585 124
-24.3119851861 137.880119585 116
-24.3119851861 137.880119585 108
-24.0664095781 136.487391104 100
-24.0664095781 136.487391104 92
-24.0664095781 136.487391104 84
-23.8208339702 135.094662623 76
-23.5752583623 133.701934143 68
-11.6085486072 31.894225171 532
-14.0269962337 38.5388554149 524
-16.4454438602 45.1834856588 516
-18.8638914867 51.8281159028 508
-21.2823391132 58.4727461467 500
-24.184476265 66.4463024395 492
-26.6029238915 73.0909326834 484
-29.021371518 79.7355629274 476
-31.4398191445 86.3801931713 468
-33.858266771 93.0248234153 460
-36.7604039228 100.998379708 452
-39.1788515493 107.643009952 444
-39.1788515493 107.643009952 436
-38.695162024 106.314083903 428
-38.695162024 106.314083903 420
-38.695162024 106.314083903 412
-38.2114724987 104.985157854 404
-38.2114724987 104.985157854 396
-38.2114724987 104.985157854 388
-37.7277829734 103.656231806 380
-37.7277829734 103.656231806 372
-50.7874001565 139.537235123 364
-52.7221582577 144.852939318 356
-52.7221582577 144.852939318 348
-52.2384687324 143.524013269 340
-52.2384687324 143.524013269 332
-52.2384687324 143.524013269 324
-51.7547792071 142.19508722 316
-51.7547792071 142.19508722 308
-51.7547792071 142.19508722 300
-51.2710896818 140.866161172 292
-51.2710896818 140.866161172 284
-51.2710896818 140.866161172 276
-50.7874001565 139.537235123 268
-50.7874001565 139.537235123 260
-50.7874001565 139.537235123 252
-50.3037106312 138.208309074 244
-50.3037106312 138.208309074 236
-50.3037106312 138.208309074 228
-49.8200211059 136.879383025 220
-49.8200211059 136.879383025 212
-49.8200211059 136.879383025 204
-49.3363315806 135.550456977 196
-49.3363315806 135.550456977 188
-49.3363315806 135.550456977 180
-48.8526420553 134.221530928 172
-48.8526420553 134.221530928 164
-48.8526420553 134.221530928 156
-48.36895253 132.892604879 148
-48.36895253 132.892604879 140
-48.36895253 132.892604879 132
-47.8852630047 131.56367883 124
-47.8852630047 131.56367883 116
-47.8852630047 131.56367883 108
-47.4015734794 130.234752781 100
-47.4015734794 130.234752781 92
-47.4015734794 130.234752781 84
-46.9178839541 128.905826733 76
-46.4341944288 127.576900684 68
-16.9705627486 29.3938769137 532
-20.5060966546 35.5176012707 524
-24.0416305606 41.6413256277 516
-27.5771644665 47.7650499847 508
-31.1126983725 53.8887743417 500
-35.3553390597 61.2372435701 492
-38.8908729656 67.3609679272 484
-42.4264068716 73.4846922842 476
-45.9619407776 79.6084166412 468
-49.4974746835 85.7321409982 460
-53.7401153707 93.0806102266 452
-57.2756492766 99.2043345836 444
-57.2756492766 99.2043345836 436
-56.5685424954 97.9795897122 428
-56.5685424954 97.9795897122 420
-56.5685424954 97.9795897122 412
-55.8614357143 96.7548448408 404
-55.8614357143 96.7548448408 396
-55.8614357143 96.7548448408 388
-55.1543289331 95.5300999694 380
-55.1543289331 95.5300999694 372
-74.2462120253 128.598211497 364
-77.07463915 133.497190983 356
-77.07463915 133.497190983 348
-76.3675323689 132.272446112 340
-76.3675323689 132.272446112 332
-76.3675323689 132.272446112 324
-75.6604255877 131.04770124 316
-75.6604255877 131.04770124 308
-75.6604255877 131.04770124 300
-74.9533188065 129.822956369 292
-74.9533188065 129.822956369 284
-74.9533188065 129.822956369 276
-74.2462120253 128.598211497 268
-74.2462120253 128.598211497 260
-74.2462120253 128.598211497 252
-73.5391052441 127.373466626 244
-73.5391052441 127.373466626 236
-73.5391052441 127.373466626 228
-72.8319984629 126.148721755 220
-72.8319984629 126.148721755 212
-72.8319984629 126.148721755 204
-72.1248916817 124.923976883 196
-72.1248916817 124.923976883 188
-72.1248916817 124.923976883 180
-71.4177849005 123.699232012 172
-71.4177849005 123.699232012 164
-71.4177849005 123.699232012 156
-70.7106781193 122.47448714 148
-70.7106781193 122.47448714 140
-70.7106781193 122.47448714 132
-70.0035713381 121.249742269 124
-70.0035713381 121.249742269 116
-70.0035713381 121.249742269 108
-69.2964645569 120.024997397 100
-69.2964645569 120.024997397 92
-69.2964645569 120.024997397 84
-68.5893577757 118.800252526 76
-67.8822509945 117.575507655 68
-21.8169349285 26.0004105804 532
-26.3621297052 31.4171627846 524
-30.907324482 36.8339149889 516
-35.4525192587 42.2506671931 508
-39.9977140355 47.6674193974 500
-45.4519477676 54.1675220425 492
-49.9971425444 59.5842742467 484
-54.5423373212 65.001026451 476
-59.0875320979 70.4177786552 468
-63.6327268747 75.8345308595 460
-69.0869606068 82.3346335046 452
-73.6321553836 87.7513857088 444
-73.6321553836 87.7513857088 436
-72.7231164282 86.668035268 428
-72.7231164282 86.668035268 420
-72.7231164282 86.668035268 412
-71.8140774728 85.5846848271 404
-71.8140774728 85.5846848271 396
-71.8140774728 85.5846848271 388
-70.9050385175 84.5013343863 380
-70.9050385175 84.5013343863 372
-95.449090312 113.751796289 364
-99.0852461334 118.085198053 356
-99.0852461334 118.085198053 348
-98.1762071781 117.001847612 340
-98.1762071781 117.001847612 332
-98.1762071781 117.001847612 324
-97.2671682227 115.918497171 316
-97.2671682227 115.918497171 308
-97.2671682227 115.918497171 300
-96.3581292674 114.83514673 292
-96.3581292674 114.83514673 284
-96.3581292674 114.83514673 276
-95.449090312 113.751796289 268
-95.449090312 113.751796289 260
-95.449090312 113.751796289 252
-94.5400513567 112.668445848 244
-94.5400513567 112.668445848 236
-94.5400513567 112.668445848 228
-93.6310124013 111.585095407 220
-93.6310124013 111.585095407 212
-93.6310124013 111.585095407 204
-92.721973446 110.501744967 196
-92.721973446 110.501744967 188
-92.721973446 110.501744967 180
-91.8129344906 109.418394526 172
-91.8129344906 109.418394526 164
-91.8129344906 109.418394526 156
-90.9038955353 108.335044085 148
-90.9038955353 108.335044085 140
-90.9038955353 108.335044085 132
-89.9948565799 107.251693644 124
-89.9948565799 107.251693644 116
-89.9948565799 107.251693644 108
-89.0858176245 106.168343203 100
-89.0858176245 106.168343203 92
-89.0858176245 106.168343203 84
-88.1767786692 105.084992762 76
-87.2677397138 104.001642322 68
-26.0004105804 21.8169349285 532
-31.4171627846 26.3621297052 524
-36.8339149889 30.907324482 516
-42.2506671931 35.4525192587 508
-47.6674193974 39.9977140355 500
-54.1675220425 45.4519477676 492
-59.5842742467 49.9971425444 484
-65.001026451 54.5423373212 476
-70.4177786552 59.0875320979 468
-75.8345308595 63.6327268747 460
-82.3346335046 69.0869606068 452
-87.7513857088 73.6321553836 444
-87.7513857088 73.6321553836 436
-86.668035268 72.7231164282 428
-86.668035268 72.7231164282 420
-86.668035268 72.7231164282 412
-85.5846848271 71.8140774728 404
-85.5846848271 71.8140774728 396
-85.5846848271 71.8140774728 388
-84.5013343863 70.9050385175 380
-84.5013343863 70.9050385175 372
-113.751796289 95.449090312 364
-118.085198053 99.0852461334 356
-118.085198053 99.0852461334 348
-117.001847612 98.1762071781 340
-117.001847612 98.1762071781 332
-117.001847612 98.1762071781 324
-115.918497171 97.2671682227 316
-115.918497171 97.2671682227 308
-115.918497171 97.2671682227 300
-114.83514673 96.3581292674 292
-114.83514673 96.3581292674 284
-114.83514673 96.3581292674 276
-113.751796289 95.449090312 268
-113.751796289 95.449090312 260
-113.751796289 95.449090312 252
-112.668445848 94.5400513567 244
-112.668445848 94.5400513567 236
-112.668445848 94.5400513567 228
-111.585095407 93.6310124013 220
-111.585095407 93.6310124013 212
-111.585095407 93.6310124013 204
-110.501744967 92.721973446 196
-110.501744967 92.721973446 188
-110.501744967 92.721973446 180
-109.418394526 91.8129344906 172
-109.418394526 91.8129344906 164
-109.418394526 91.8129344906 156
-108.335044085 90.9038955353 148
-108.335044085 90.9038955353 140
-108.335044085 90.9038955353 132
-107.251693644 89.9948565799 124
-107.251693644 89.9948565799 116
-107.251693644 89.9948565799 108
-106.168343203 89.0858176245 100
-106.168343203 89.0858176245 92
-106.168343203 89.0858176245 84
-105.084992762 88.1767786692 76
-104.001642322 87.2677397138 68
-29.3938769137 16.9705627486 532
-35.5176012707 20.5060966546 524
-41.6413256277 24.0416305606 516
-47.7650499847 27.5771644665 508
-53.8887743417 31.1126983725 500
-61.2372435701 35.3553390597 492
-67.3609679272 38.8908729656 484
-73.4846922842 42.4264068716 476
-79.6084166412 45.9619407776 468
-85.7321409982 49.4974746835 460
-93.0806102266 53.7401153707 452
-99.2043345836 57.2756492766 444
-99.2043345836 57.2756492766 436
-97.9795897122 56.5685424954 428
-97.9795897122 56.5685424954 420
-97.9795897122 56.5685424954 412
-96.7548448408 55.8614357143 404
-96.7548448408 55.8614357143 396
-96.7548448408 55.8614357143 388
-95.5300999694 55.1543289331 380
-95.5300999694 55.1543289331 372
-128.598211497 74.2462120253 364
-133.497190983 77.07463915 356
-133.497190983 77.07463915 348
-132.272446112 76.3675323689 340
-132.272446112 76.3675323689 332
-132.272446112 76.3675323689 324
-131.04770124 75.6604255877 316
-131.04770124 75.6604255877 308
-131.04770124 75.6604255877 300
-129.822956369 74.9533188065 292
-129.822956369 74.9533188065 284
-129.822956369 74.9533188065 276
-128.598211497 74.2462120253 268
-128.598211497 74.2462120253 260
-128.598211497 74.2462120253 252
-127.373466626 73.5391052441 244
-127.373466626 73.5391052441 236
-127.373466626 73.5391052441 228
-126.148721755 72.8319984629 220
-126.148721755 72.8319984629 212
-126.148721755 72.8319984629 204
-124.923976883 72.1248916817 196
-124.923976883 72.1248916817 188
-124.923976883 72.1248916817 180
-123.699232012 71.4177849005 172
-123.699232012 71.4177849005 164
-123.699232012 71.4177849005 156
-122.47448714 70.7106781193 148
-122.47448714 70.7106781193 140
-122.47448714 70.7106781193 132
-121.249742269 70.0035713381 124
-121.249742269 70.0035713381 116
-121.249742269 70.0035713381 108
-120.024997397 69.2964645569 100
-120.024997397 69.2964645569 92
-120.024997397 69.2964645569 84
-118.800252526 68.5893577757 76
-117.575507655 67.8822509945 68
-31.894225171 11.6085486072 532
-38.5388554149 14.0269962337 524
-45.1834856588 16.4454438602 516
-51.8281159028 18.8638914867 508
-58.4727461467 21.2823391132 500
-66.4463024395 24.184476265 492
-73.0909326834 26.6029238915 484
-79.7355629274 29.021371518 476
-86.3801931713 31.4398191445 468
-93.0248234153 33.858266771 460
-100.998379708 36.7604039228 452
-107.643009952 39.1788515493 444
-107.643009952 39.1788515493 436
-106.314083903 38.695162024 428
-106.314083903 38.695162024 420
-106.314083903 38.695162024 412
-104.985157854 38.2114724987 404
-104.985157854 38.2114724987 396
-104.985157854 38.2114724987 388
-103.656231806 37.7277829734 380
-103.656231806 37.7277829734 372
-139.537235123 50.7874001565 364
-144.852939318 52.7221582577 356
-144.852939318 52.7221582577 348
-143.524013269 52.2384687324 340
-143.524013269 52.2384687324 332
-143.524013269 52.2384687324 324
-142.19508722 51.7547792071 316
-142.19508722 51.7547792071 308
-142.19508722 51.7547792071 300
-140.866161172 51.2710896818 292
-140.866161172 51.2710896818 284
-140.866161172 51.2710896818 276
-139.537235123 50.7874001565 268
-139.537235123 50.7874001565 260
-139.537235123 50.7874001565 252
-138.208309074 50.3037106312 244
-138.208309074 50.3037106312 236
-138.208309074 50.3037106312 228
-136.879383025 49.8200211059 220
-136.879383025 49.8200211059 212
-136.879383025 49.8200211059 204
-135.550456977 49.3363315806 196
-135.550456977 49.3363315806 188
-135.550456977 49.3363315806 180
-134.221530928 48.8526420553 172
-134.221530928 48.8526420553 164
-134.221530928 48.8526420553 156
-132.892604879 48.36895253 148
-132.892604879 48.36895253 140
-132.892604879 48.36895253 132
-131.56367883 47.8852630047 124
-131.56367883 47.8852630047 116
-131.56367883 47.8852630047 108
-130.234752781 47.4015734794 100
-130.234752781 47.4015734794 92
-130.234752781 47.4015734794 84
-128.905826733 46.9178839541 76
-127.576900684 46.4341944288 68
-33.4254835357 5.89381459057 532
-40.3891259389 7.12169263027 524
-47.3527683422 8.34957066997 516
-54.3164107455 9.57744870967 508
-61.2800531487 10.8053267494 500
-69.6364240326 12.278780397 492
-76.6000664359 13.5066584367 484
-83.5637088392 14.7345364764 476
-90.5273512424 15.9624145161 468
-97.4909936457 17.1902925558 460
-105.84736453 18.6637462035 452
-112.811006933 19.8916242432 444
-112.811006933 19.8916242432 436
-111.418278452 19.6460486352 428
-111.418278452 19.6460486352 420
-111.418278452 19.6460486352 412
-110.025549972 19.4004730273 404
-110.025549972 19.4004730273 396
-110.025549972 19.4004730273 388
-108.632821491 19.1548974193 380
-108.632821491 19.1548974193 372
-146.236490469 25.7854388337 364
-151.807404391 26.7677412655 356
-151.807404391 26.7677412655 348
-150.414675911 26.5221656575 340
-150.414675911 26.5221656575 332
-150.414675911 26.5221656575 324
-149.02194743 26.2765900496 316
-149.02194743 26.2765900496 308
-149.02194743 26.2765900496 300
-147.629218949 26.0310144417 292
-147.629218949 26.0310144417 284
-147.629218949 26.0310144417 276
-146.236490469 25.7854388337 268
-146.236490469 25.7854388337 260
-146.236490469 25.7854388337 252
-144.843761988 25.5398632258 244
-144.843761988 25.5398632258 236
-144.843761988 25.5398632258 228
-143.451033507 25.2942876178 220
-143.451033507 25.2942876178 212
-143.451033507 25.2942876178 204
-142.058305027 25.0487120099 196
-142.058305027 25.0487120099 188
-142.058305027 25.0487120099 180
-140.665576546 24.803136402 172
-140.665576546 24.803136402 164
-140.665576546 24.803136402 156
-139.272848065 24.557560794 148
-139.272848065 24.557560794 140
-139.272848065 24.557560794 132
-137.880119585 24.3119851861 124
-137.880119585 24.3119851861 116
-137.880119585 24.3119851861 108
-136.487391104 24.0664095781 100
-136.487391104 24.0664095781 92
-136.487391104 24.0664095781 84
-135.094662623 23.8208339702 76
-133.701934143 23.5752583623 68
-33.9411254973 4.15658906997e-15 532
-41.0121933092 5.02254512621e-15 524
-48.0832611211 5.88850118246e-15 516
-55.1543289331 6.7544572387e-15 508
-62.225396745 7.62041329494e-15 500
-70.7106781193 8.65956056244e-15 492
-77.7817459312 9.52551661868e-15 484
-84.8528137432 1.03914726749e-14 476
-91.9238815551 1.12574287312e-14 468
-98.994949367 1.21233847874e-14 460
-107.480230741 1.31625320549e-14 452
-114.551298553 1.40284881111e-14 444
-114.551298553 1.40284881111e-14 436
-113.137084991 1.38552968999e-14 428
-113.137084991 1.38552968999e-14 420
-113.137084991 1.38552968999e-14 412
-111.722871429 1.36821056886e-14 404
-111.722871429 1.36821056886e-14 396
-111.722871429 1.36821056886e-14 388
-110.308657866 1.35089144774e-14 380
-110.308657866 1.35089144774e-14 372
-148.492424051 1.81850771811e-14 364
-154.1492783 1.88778420261e-14 356
-154.1492783 1.88778420261e-14 348
-152.735064738 1.87046508149e-14 340
-152.735064738 1.87046508149e-14 332
-152.735064738 1.87046508149e-14 324
-151.320851175 1.85314596036e-14 316
-151.320851175 1.85314596036e-14 308
-151.320851175 1.85314596036e-14 300
-149.906637613 1.83582683924e-14 292
-149.906637613 1.83582683924e-14 284
-149.906637613 1.83582683924e-14 276
-148.492424051 1.81850771811e-14 268
-148.492424051 1.81850771811e-14 260
-148.492424051 1.81850771811e-14 252
-147.078210488 1.80118859699e-14 244
-147.078210488 1.80118859699e-14 236
-147.078210488 1.80118859699e-14 228
-145.663996926 1.78386947586e-14 220
-145.663996926 1.78386947586e-14 212
-145.663996926 1.78386947586e-14 204
-144.249783363 1.76655035474e-14 196
-144.249783363 1.76655035474e-14 188
-144.249783363 1.76655035474e-14 180
-142.835569801 1.74923123361e-14 172
-142.835569801 1.74923123361e-14 164
-142.835569801 1.74923123361e-14 156
-141.421356239 1.73191211249e-14 148
-141.421356239 1.73191211249e-14 140
-141.421356239 1.73191211249e-14 132
-140.007142676 1.71459299136e-14 124
-140.007142676 1.71459299136e-14 116
-140.007142676 1.71459299136e-14 108
-138.592929114 1.69727387024e-14 100
-138.592929114 1.69727387024e-14 92
-138.592929114 1.69727387024e-14 84
-137.178715551 1.67995474911e-14 76
-135.764501989 1.66263562799e-14 68
-33.4254835357 -5.89381459057 532
-40.3891259389 -7.12169263027 524
-47.3527683422 -8.34957066997 516
-54.3164107455 -9.57744870967 508
-61.2800531487 -10.8053267494 500
-69.6364240326 -12.278780397 492
-76.6000664359 -13.5066584367 484
-83.5637088392 -14.7345364764 476
-90.5273512424 -15.9624145161 468
-97.4909936457 -17.1902925558 460
-105.84736453 -18.6637462035 452
-112.811006933 -19.8916242432 444
-112.811006933 -19.8916242432 436
-111.418278452 -19.6460486352 428
-111.418278452 -19.6460486352 420
-111.418278452 -19.6460486352 412
-110.025549972 -19.4004730273 404
-110.025549972 -19.4004730273 396
-110.025549972 -19.4004730273 388
-108.632821491 -19.1548974193 380
-108.632821491 -19.1548974193 372
-146.236490469 -25.7854388337 364
-151.807404391 -26.7677412655 356
-151.807404391 -26.7677412655 348
-150.414675911 -26.5221656575 340
-150.414675911 -26.5221656575 332
-150.414675911 -26.5221656575 324
-149.02194743 -26.2765900496 316
-149.02194743 -26.2765900496 308
-149.02194743 -26.2765900496 300
-147.629218949 -26.0310144417 292
-147.629218949 -26.0310144417 284
-147.629218949 -26.0310144417 276
-146.236490469 -25.7854388337 268
-146.236490469 -25.7854388337 260
-146.236490469 -25.7854388337 252
-144.843761988 -25.5398632258 244
-144.843761988 -25.5398632258 236
-144.843761988 -25.5398632258 228
-143.451033507 -25.2942876178 220
-143.451033507 -25.2942876178 212
-143.451033507 -25.2942876178 204
-142.058305027 -25.0487120099 196
-142.058305027 -25.0487120099 188
-142.058305027 -25.0487120099 180
-140.665576546 -24.803136402 172
-140.665576546 -24.803136402 164
-140.665576546 -24.803136402 156
-139.272848065 -24.557560794 148
-139.272848065 -24.557560794 140
-139.272848065 -24.557560794 132
-137.880119585 -24.3119851861 124
-137.880119585 -24.3119851861 116
-137.880119585 -24.3119851861 108
-136.487391104 -24.0664095781 100
-136.487391104 -24.0664095781 92
-136.487391104 -24.0664095781 84
-135.094662623 -23.8208339702 76
-133.701934143 -23.5752583623 68
-31.894225171 -11.6085486072 532
-38.5388554149 -14.0269962337 524
-45.1834856588 -16.4454438602 516
-51.8281159028 -18.8638914867 508
-58.4727461467 -21.2823391132 500
-66.4463024395 -24.184476265 492
-73.0909326834 -26.6029238915 484
-79.7355629274 -29.021371518 476
-86.3801931713 -31.4398191445 468
-93.0248234153 -33.858266771 460
-100.998379708 -36.7604039228 452
-107.643009952 -39.1788515493 444
-107.643009952 -39.1788515493 436
-106.314083903 -38.695162024 428
-106.314083903 -38.695162024 420
-106.314083903 -38.695162024 412
-104.985157854 -38.2114724987 404
-104.985157854 -38.2114724987 396
-104.985157854 -38.2114724987 388
-103.656231806 -37.7277829734 380
-103.656231806 -37.7277829734 372
-139.537235123 -50.7874001565 364
-144.852939318 -52.7221582577 356
-144.852939318 -52.7221582577 348
-143.524013269 -52.2384687324 340
-143.524013269 -52.2384687324 332
-143.524013269 -52.2384687324 324
-142.19508722 -51.7547792071 316
-142.19508722 -51.7547792071 308
-142.19508722 -51.7547792071 300
-140.866161172 -51.2710896818 292
-140.866161172 -51.2710896818 284
-140.866161172 -51.2710896818 276
-139.537235123 -50.7874001565 268
-139.537235123 -50.7874001565 260
-139.537235123 -50.7874001565 252
-138.208309074 -50.3037106312 244
-138.208309074 -50.3037106312 236
-138.208309074 -50.3037106312 228
-136.879383025 -49.8200211059 220
-136.879383025 -49.8200211059 212
-136.879383025 -49.8200211059 204
-135.550456977 -49.3363315806 196
-135.550456977 -49.3363315806 188
-135.550456977 -49.3363315806 180
-134.221530928 -48.8526420553 172
-134.221530928 -48.8526420553 164
-134.221530928 -48.8526420553 156
-132.892604879 -48.36895253 148
-132.892604879 -48.36895253 140
-132.892604879 -48.36895253 132
-131.56367883 -47.8852630047 124
-131.56367883 -47.8852630047 116
-131.56367883 -47.8852630047 108
-130.234752781 -47.4015734794 100
-130.234752781 -47.4015734794 92
-130.234752781 -47.4015734794 84
-128.905826733 -46.9178839541 76
-127.576900684 -46.4341944288 68
-29.3938769137 -16.9705627486 532
-35.5176012707 -20.5060966546 524
-41.6413256277 -24.0416305606 516
-47.7650499847 -27.5771644665 508
-53.8887743417 -31.1126983725 500
-61.2372435701 -35.3553390597 492
-67.3609679272 -38.8908729656 484
-73.4846922842 -42.4264068716 476
-79.6084166412 -45.9619407776 468
-85.7321409982 -49.4974746835 460
-93.0806102266 -53.7401153707 452
-99.2043345836 -57.2756492766 444
-99.2043345836 -57.2756492766 436
-97.9795897122 -56.5685424954 428
-97.9795897122 -56.5685424954 420
-97.9795897122 -56.5685424954 412
-96.7548448408 -55.8614357143 404
-96.7548448408 -55.8614357143 396
-96.7548448408 -55.8614357143 388
-95.5300999694 -55.1543289331 380
-95.5300999694 -55.1543289331 372
-128.598211497 -74.2462120253 364
-133.497190983 -77.07463915 356
-133.497190983 -77.07463915 348
-132.272446112 -76.3675323689 340
-132.272446112 -76.3675323689 332
-132.272446112 -76.3675323689 324
-131.04770124 -75.6604255877 316
-131.04770124 -75.6604255877 308
-131.04770124 -75.6604255877 300
-129.822956369 -74.9533188065 292
-129.822956369 -74.9533188065 284
-129.822956369 -74.9533188065 276
-128.598211497 -74.2462120253 268
-128.598211497 -74.2462120253 260
-128.598211497 -74.2462120253 252
-127.373466626 -73.5391052441 244
-127.373466626 -73.5391052441 236
-127.373466626 -73.5391052441 228
-126.148721755 -72.8319984629 220
-126.148721755 -72.8319984629 212
-126.148721755 -72.8319984629 204
-124.923976883 -72.1248916817 196
-124.923976883 -72.1248916817 188
-124.923976883 -72.1248916817 180
-123.699232012 -71.4177849005 172
-123.699232012 -71.4177849005 164
-123.699232012 -71.4177849005 156
-122.47448714 -70.7106781193 148
-122.47448714 -70.7106781193 140
-122.47448714 -70.7106781193 132
-121.249742269 -70.0035713381 124
-121.249742269 -70.0035713381 116
-121.249742269 -70.0035713381 108
-120.024997397 -69.2964645569 100
-120.024997397 -69.2964645569 92
-120.024997397 -69.2964645569 84
-118.800252526 -68.5893577757 76
-117.575507655 -67.8822509945 68
-26.0004105804 -21.8169349285 532
-31.4171627846 -26.3621297052 524
-36.8339149889 -30.907324482 516
-42.2506671931 -35.4525192587 508
-47.6674193974 -39.9977140355 500
-54.1675220425 -45.4519477676 492
-59.5842742467 -49.9971425444 484
-65.001026451 -54.5423373212 476
-70.4177786552 -59.0875320979 468
-75.8345308595 -63.6327268747 460
-82.3346335046 -69.0869606068 452
-87.7513857088 -73.6321553836 444
-87.7513857088 -73.6321553836 436
-86.668035268 -72.7231164282 428
-86.668035268 -72.7231164282 420
-86.668035268 -72.7231164282 412
-85.5846848271 -71.8140774728 404
-85.5846848271 -71.8140774728 396
-85.5846848271 -71.8140774728 388
-84.5013343863 -70.9050385175 380
-84.5013343863 -70.9050385175 372
-113.751796289 -95.449090312 364
-118.085198053 -99.0852461334 356
-118.085198053 -99.0852461334 348
-117.001847612 -98.1762071781 340
-117.001847612 -98.1762071781 332
-117.001847612 -98.1762071781 324
-115.918497171 -97.2671682227 316
-115.918497171 -97.2671682227 308
-115.918497171 -97.2671682227 300
-114.83514673 -96.3581292674 292
-114.83514673 -96.3581292674 284
-114.83514673 -96.3581292674 276
-113.751796289 -95.449090312 268
-113.751796289 -95.449090312 260
-113.751796289 -95.449090312 252
-112.668445848 -94.5400513567 244
-112.668445848 -94.5400513567 236
-112.668445848 -94.5400513567 228
-111.585095407 -93.6310124013 220
-111.585095407 -93.6310124013 212
-111.585095407 -93.6310124013 204
-110.501744967 -92.721973446 196
-110.501744967 -92.721973446 188
-110.501744967 -92.721973446 180
-109.418394526 -91.8129344906 172
-109.418394526 -91.8129344906 164
-109.418394526 -91.8129344906 156
-108.335044085 -90.9038955353 148
-108.335044085 -90.9038955353 140
-108.335044085 -90.9038955353 132
-107.251693644 -89.9948565799 124
-107.251693644 -89.9948565799 116
-107.251693644 -89.9948565799 108
-106.168343203 -89.0858176245 100
-106.168343203 -89.0858176245 92
-106.168343203 -89.0858176245 84
-105.084992762 -88.1767786692 76
-104.001642322 -87.2677397138 68
-21.8169349285 -26.0004105804 532
-26.3621297052 -31.4171627846 524
-30.907324482 -36.8339149889 516
-35.4525192587 -42.2506671931 508
-39.9977140355 -47.6674193974 500
-45.4519477676 -54.1675220425 492
-49.9971425444 -59.5842742467 484
-54.5423373212 -65.001026451 476
-59.0875320979 -70.4177786552 468
-63.6327268747 -75.8345308595 460
-69.0869606068 -82.3346335046 452
-73.6321553836 -87.7513857088 444
-73.6321553836 -87.7513857088 436
-72.7231164282 -86.668035268 428
-72.7231164282 -86.668035268 420
-72.7231164282 -86.668035268 412
-71.8140774728 -85.5846848271 404
-71.8140774728 -85.5846848271 396
-71.8140774728 -85.5846848271 388
-70.9050385175 -84.5013343863 380
-70.9050385175 -84.5013343863 372
-95.449090312 -113.751796289 364
-99.0852461334 -118.085198053 356
-99.0852461334 -118.085198053 348
-98.1762071781 -117.001847612 340
-98.1762071781 -117.001847612 332
-98.1762071781 -117.001847612 324
-97.2671682227 -115.918497171 316
-97.2671682227 -115.918497171 308
-97.2671682227 -115.918497171 300
-96.3581292674 -114.83514673 292
-96.3581292674 -114.83514673 284
-96.3581292674 -114.83514673 276
-95.449090312 -113.751796289 268
-95.449090312 -113.751796289 260
-95.449090312 -113.751796289 252
-94.5400513567 -112.668445848 244
-94.5400513567 -112.668445848 236
-94.5400513567 -112.668445848 228
-93.6310124013 -111.585095407 220
-93.6310124013 -111.585095407 212
-93.6310124013 -111.585095407 204
-92.721973446 -110.501744967 196
-92.721973446 -110.501744967 188
-92.721973446 -110.501744967 180
-91.8129344906 -109.418394526 172
-91.8129344906 -109.418394526 164
-91.8129344906 -109.418394526 156
-90.9038955353 -108.335044085 148
-90.9038955353 -108.335044085 140
-90.9038955353 -108.335044085 132
-89.9948565799 -107.251693644 124
-89.9948565799 -107.251693644 116
-89.9948565799 -107.251693644 108
-89.0858176245 -106.168343203 100
-89.0858176245 -106.168343203 92
-89.0858176245 -106.168343203 84
-88.1767786692 -105.084992762 76
-87.2677397138 -104.001642322 68
-16.9705627486 -29.3938769137 532
-20.5060966546 -35.5176012707 524
-24.0416305606 -41.6413256277 516
-27.5771644665 -47.7650499847 508
-31.1126983725 -53.8887743417 500
-35.3553390597 -61.2372435701 492
-38.8908729656 -67.3609679272 484
-42.4264068716 -73.4846922842 476
-45.9619407776 -79.6084166412 468
-49.4974746835 -85.7321409982 460
-53.7401153707 -93.0806102266 452
-57.2756492766 -99.2043345836 444
-57.2756492766 -99.2043345836 436
-56.5685424954 -97.9795897122 428
-56.5685424954 -97.9795897122 420
-56.5685424954 -97.9795897122 412
-55.8614357143 -96.7548448408 404
-55.8614357143 -96.7548448408 396
-55.8614357143 -96.7548448408 388
-55.1543289331 -95.5300999694 380
-55.1543289331 -95.5300999694 372
-74.2462120253 -128.598211497 364
-77.07463915 -133.497190983 356
-77.07463915 -133.497190983 348
-76.3675323689 -132.272446112 340
-76.3675323689 -132.272446112 332
-76.3675323689 -132.272446112 324
-75.6604255877 -131.04770124 316
-75.6604255877 -131.04770124 308
-75.6604255877 -131.04770124 300
-74.9533188065 -129.822956369 292
-74.9533188065 -129.822956369 284
-74.9533188065 -129.822956369 276
-74.2462120253 -128.598211497 268
-74.2462120253 -128.598211497 260
-74.2462120253 -128.598211497 252
-73.5391052441 -127.373466626 244
-73.5391052441 -127.373466626 236
-73.5391052441 -127.373466626 228
-72.8319984629 -126.148721755 220
-72.8319984629 -126.148721755 212
-72.8319984629 -126.148721755 204
-72.1248916817 -124.923976883 196
-72.1248916817 -124.923976883 188
-72.1248916817 -124.923976883 180
-71.4177849005 -123.699232012 172
-71.4177849005 -123.699232012 164
-71.4177849005 -123.699232012 156
-70.7106781193 -122.47448714 148
-70.7106781193 -122.47448714 140
-70.7106781193 -122.47448714 132
-70.0035713381 -121.249742269 124
-70.0035713381 -121.249742269 116
-70.0035713381 -121.249742269 108
-69.2964645569 -120.024997397 100
-69.2964645569 -120.024997397 92
-69.2964645569 -120.024997397 84
-68.5893577757 -118.800252526 76
-67.8822509945 -117.575507655 68
-11.6085486072 -31.894225171 532
-14.0269962337 -38.5388554149 524
-16.4454438602 -45.1834856588 516
-18.8638914867 -51.8281159028 508
-21.2823391132 -58.4727461467 500
-24.184476265 -66.4463024395 492
-26.6029238915 -73.0909326834 484
-29.021371518 -79.7355629274 476
-31.4398191445 -86.3801931713 468
-33.858266771 -93.0248234153 460
-36.7604039228 -100.998379708 452
-39.1788515493 -107.643009952 444
-39.1788515493 -107.643009952 436
-38.695162024 -106.314083903 428
-38.695162024 -106.314083903 420
-38.695162024 -106.314083903 412
-38.2114724987 -104.985157854 404
-38.2114724987 -104.985157854 396
-38.2114724987 -104.985157854 388
-37.7277829734 -103.656231806 380
-37.7277829734 -103.656231806 372
-50.7874001565 -139.537235123 364
-52.7221582577 -144.852939318 356
-52.7221582577 -144.852939318 348
-52.2384687324 -143.524013269 340
-52.2384687324 -143.524013269 332
-52.2384687324 -143.524013269 324
-51.7547792071 -142.19508722 316
-51.7547792071 -142.19508722 308
-51.7547792071 -142.19508722 300
-51.2710896818 -140.866161172 292
-51.2710896818 -140.866161172 284
-51.2710896818 -140.866161172 276
-50.7874001565 -139.537235123 268
-50.7874001565 -139.537235123 260
-50.7874001565 -139.537235123 252
